704828.06250000 7059406.50000000 35.15000153 0.000978 0.999999 0.000978
704828.31250000 7059406.50000000 35.34999847 0.566150 -0.327432 0.756480
704828.50000000 7059407.00000000 35.54999924 0.000978 -0.999999 0.000978
704828.68750000 7059407.00000000 35.84000015 0.314760 -0.066061 0.946870
704828.87500000 7059407.50000000 36.02999878 0.682995 -0.663619 0.305168
704823.43750000 7059402.00000000 36.36000061 -0.296729 0.627142 0.720170
704825.00000000 7059403.50000000 34.95000076 -0.414001 0.660074 0.626821
704826.12500000 7059404.50000000 33.65999985 -0.041913 0.125738 0.991178
704826.50000000 7059405.00000000 33.61000061 -0.039882 0.065751 0.997039
704826.81250000 7059405.00000000 33.59999847 -0.031583 0.011207 0.999438
704827.06250000 7059405.50000000 33.61999893 -0.053426 0.021999 0.998329
704827.37500000 7059406.00000000 33.65999985 0.045981 -0.050258 0.997677
704827.25000000 7059406.00000000 34.66999817 0.000978 -0.999999 0.000978
704827.43750000 7059406.00000000 34.90000153 0.203730 -0.571364 0.795008
704827.68750000 7059406.50000000 35.11000061 0.000978 0.999999 0.000978
704827.81250000 7059406.50000000 35.36000061 0.058873 -0.670576 0.739501
704828.06250000 7059407.00000000 35.65999985 0.000978 0.999999 0.000978
704828.25000000 7059407.00000000 35.77000046 0.369601 -0.609430 0.701420
704828.43750000 7059407.50000000 36.04999924 0.000978 -0.999999 0.000978
704828.68750000 7059407.50000000 36.36000061 0.355052 -0.665927 0.656110
704828.87500000 7059408.00000000 36.56999969 0.666212 -0.439132 0.602763
704824.31250000 7059403.50000000 33.72000122 -0.590298 -0.386407 0.708687
704824.50000000 7059403.50000000 33.95999908 0.075893 -0.284276 0.955734
704824.81250000 7059404.00000000 33.90000153 0.521690 -0.218773 0.824607
704825.25000000 7059404.50000000 33.65999985 -0.130326 0.696568 0.705556
704825.56250000 7059404.50000000 33.65000153 -0.079407 0.619371 0.781072
704825.81250000 7059405.00000000 33.68000031 0.075388 -0.015927 0.997027
704826.18750000 7059405.50000000 33.65000153 -0.178665 -0.126190 0.975784
704826.06250000 7059405.50000000 34.54000092 0.000978 0.999999 0.000978
704826.31250000 7059405.50000000 34.79000092 0.463907 -0.617985 0.634732
704826.50000000 7059406.00000000 35.00999832 0.000978 0.999999 0.000978
704826.87500000 7059406.50000000 35.56000137 0.000978 0.999999 0.000978
704827.06250000 7059406.50000000 35.81000137 0.165887 -0.716814 0.677244
704827.25000000 7059407.00000000 36.04000092 0.481599 -0.823581 0.299627
704827.75000000 7059407.50000000 36.52999878 0.000978 0.999999 0.000978
704827.87500000 7059407.50000000 36.84000015 0.152476 -0.759362 0.632550
704828.12500000 7059408.00000000 37.08000183 -0.311334 -0.611377 0.727522
704828.31250000 7059408.00000000 37.27999878 0.224031 -0.455580 0.861543
704828.50000000 7059408.50000000 37.52000046 0.526910 -0.383355 0.758554
704821.93750000 7059401.50000000 36.22000122 -0.261156 0.748647 0.609364
704822.37500000 7059402.00000000 35.81999969 -0.202868 0.707716 0.676744
704823.62500000 7059403.00000000 33.61999893 -0.061798 -0.199934 0.977859
704823.81250000 7059403.50000000 33.86999893 0.000978 -0.999999 0.000978
704823.93750000 7059403.50000000 34.27000046 0.534310 -0.467729 0.704090
704824.37500000 7059404.00000000 33.93000031 -0.517259 0.001344 0.855828
704824.75000000 7059404.50000000 33.88000107 0.738825 -0.079834 0.669152
704825.12500000 7059404.50000000 33.65000153 -0.152584 0.248116 0.956638
704825.43750000 7059405.00000000 33.63000107 -0.015132 0.017150 0.999738
704825.37500000 7059405.00000000 34.52999878 -0.041177 -0.182356 0.982370
704825.56250000 7059405.50000000 34.75999832 0.000978 -0.999999 0.000978
704825.81250000 7059405.50000000 34.95000076 0.244322 -0.685677 0.685677
704826.00000000 7059406.00000000 35.22000122 0.239392 -0.884709 0.399978
704826.18750000 7059406.00000000 35.45999908 0.397794 -0.579360 0.711408
704826.43750000 7059406.50000000 35.70999908 0.000978 -0.999999 0.000978
704826.62500000 7059406.50000000 35.93000031 0.222285 -0.275410 0.935275
704826.81250000 7059407.00000000 36.24000168 0.337020 -0.902155 0.269322
704827.00000000 7059407.00000000 36.43999863 0.672506 -0.410146 0.616049
704827.18750000 7059407.50000000 36.72999954 0.000978 -0.999999 0.000978
704827.43750000 7059407.50000000 36.90000153 0.106552 -0.576548 0.810086
704827.62500000 7059408.00000000 37.16999817 0.410173 -0.786299 0.462052
704827.81250000 7059408.00000000 37.45000076 -0.043788 -0.396742 0.916885
704828.06250000 7059408.50000000 37.58000183 -0.019747 0.044692 0.998806
704823.81250000 7059403.50000000 34.36000061 -0.709868 0.001384 0.704333
704824.31250000 7059404.00000000 33.93999863 0.370365 0.096322 0.923878
704824.56250000 7059404.50000000 34.06999969 -0.429440 -0.107710 0.896649
704825.06250000 7059405.00000000 33.68000031 0.232790 -0.003545 0.972520
704825.00000000 7059405.00000000 34.58000183 0.244164 -0.879291 0.408938
704825.18750000 7059405.50000000 34.84999847 0.339395 -0.735627 0.586228
704825.37500000 7059405.50000000 35.09000015 0.391013 -0.704483 0.592294
704825.56250000 7059406.00000000 35.25000000 0.000978 0.999999 0.000978
704825.75000000 7059406.00000000 35.56999969 0.462168 -0.545592 0.699092
704826.00000000 7059406.50000000 35.75000000 0.000978 0.999999 0.000978
704826.18750000 7059406.50000000 35.97000122 0.348559 -0.666027 0.659481
704826.37500000 7059407.00000000 36.27999878 0.000978 0.999999 0.000978
704826.56250000 7059407.00000000 36.56000137 0.000978 0.999999 0.000978
704826.75000000 7059407.00000000 36.77999878 0.556826 -0.189655 0.808688
704827.00000000 7059407.50000000 36.95000076 0.066643 -0.562920 0.823820
704827.18750000 7059408.00000000 37.25999832 0.254912 -0.274849 0.927080
704828.06250000 7059408.50000000 37.34999847 0.429296 -0.565212 0.704443
704822.00000000 7059402.00000000 35.74000168 -0.481617 0.736494 0.474997
704823.18750000 7059403.00000000 33.68000031 -0.132364 0.016685 0.991061
704823.50000000 7059403.50000000 33.66999817 -0.456576 -0.184699 0.870302
704823.75000000 7059403.50000000 33.86000061 -0.457097 -0.307332 0.834631
704821.18750000 7059401.50000000 35.84999847 -0.592921 0.488782 0.639951
704822.68750000 7059403.00000000 33.61999893 0.045005 0.082325 0.995589
704823.00000000 7059403.50000000 33.63000107 0.000000 0.000000 0.000000
704823.31250000 7059403.50000000 33.65000153 0.023670 0.029844 0.999274
704823.50000000 7059404.00000000 33.88999939 -0.627538 0.104345 0.771563
704823.75000000 7059404.00000000 34.08000183 -0.663055 0.079799 0.744305
704824.25000000 7059404.50000000 33.63999939 -0.015421 0.226565 0.973874
704824.18750000 7059404.50000000 34.41999817 -0.034834 -0.578246 0.815118
704824.43750000 7059405.00000000 34.61999893 -0.761919 0.136217 0.633186
704824.62500000 7059405.00000000 34.90999985 -0.162988 -0.699173 0.696126
704824.81250000 7059405.50000000 35.15000153 -0.617217 -0.479310 0.623944
704825.00000000 7059405.50000000 35.40999985 0.457392 -0.543881 0.703552
704825.37500000 7059406.00000000 35.91999817 0.273752 -0.773786 0.571240
704825.62500000 7059406.50000000 36.16999817 0.467082 -0.719739 0.513624
704826.25000000 7059407.00000000 36.88999939 0.168762 -0.640079 0.749546
704826.43750000 7059407.50000000 37.13000107 0.000978 -0.999999 0.000978
704826.62500000 7059407.50000000 37.40999985 0.311205 -0.711095 0.630472
704826.81250000 7059408.00000000 37.65999985 0.615208 -0.178609 0.767866
704827.18750000 7059408.50000000 37.54999924 0.001234 -0.314746 0.949175
704827.62500000 7059408.50000000 37.20999908 0.243863 0.548304 0.799933
704828.12500000 7059409.00000000 36.72999954 -0.413658 0.609689 0.676140
704820.87500000 7059401.50000000 35.65000153 0.049500 0.801895 0.595411
704822.00000000 7059402.50000000 33.65000153 0.014894 0.000993 0.999889
704822.25000000 7059403.00000000 33.65000153 -0.121736 0.007677 0.992533
704822.56250000 7059403.50000000 33.63999939 0.064937 0.028743 0.997475
704822.87500000 7059403.50000000 33.65000153 -0.037842 -0.011250 0.999220
704823.18750000 7059404.00000000 33.65000153 -0.112583 0.012023 0.993570
704823.50000000 7059404.50000000 33.65000153 -0.328078 0.174510 0.928392
704823.50000000 7059404.50000000 34.41999817 -0.596499 -0.606638 0.525528
704823.75000000 7059404.50000000 33.72000122 -0.673435 0.146137 0.724658
704824.12500000 7059405.00000000 33.63999939 0.012139 0.124705 0.992120
704824.12500000 7059405.00000000 34.40000153 -0.880491 0.415663 0.227944
704824.31250000 7059405.50000000 34.65000153 -0.694117 -0.697182 0.179275
704824.75000000 7059405.50000000 33.61999893 0.106875 0.173210 0.979069
704824.75000000 7059406.00000000 35.77999878 0.000978 0.999999 0.000978
704825.00000000 7059406.00000000 36.06000137 0.348137 -0.375988 0.858739
704825.18750000 7059406.50000000 36.29999924 0.000978 0.999999 0.000978
704825.31250000 7059406.50000000 36.56999969 0.592293 -0.481552 0.645985
704825.50000000 7059407.00000000 36.84000015 -0.229486 -0.868447 0.439473
704825.75000000 7059407.00000000 37.04000092 0.095416 -0.670845 0.735434
704825.93750000 7059407.50000000 37.27000046 0.000978 -0.999999 0.000978
704826.12500000 7059407.50000000 37.52000046 0.320660 -0.575254 0.752503
704826.37500000 7059408.00000000 37.72000122 -0.466595 0.175157 0.866954
704826.87500000 7059408.50000000 37.22000122 -0.429490 0.701444 0.568783
704827.87500000 7059409.50000000 36.41999817 0.000978 0.999999 0.000978
704820.50000000 7059401.50000000 35.72999954 -0.313862 0.735565 0.600362
704821.75000000 7059402.50000000 33.63000107 0.027289 -0.009096 0.999586
704822.00000000 7059403.00000000 33.61999893 0.143913 0.010040 0.989539
704822.31250000 7059403.00000000 33.66999817 0.208650 -0.005828 0.977973
704822.62500000 7059403.50000000 33.59999847 0.001005 -0.029133 0.999575
704822.93750000 7059404.00000000 33.63999939 0.087951 0.029317 0.995693
704823.25000000 7059404.00000000 33.65000153 0.025168 0.007047 0.999658
704823.56250000 7059404.50000000 33.59999847 -0.227876 0.198211 0.953302
704823.56250000 7059404.50000000 34.40000153 0.015340 -0.704229 0.709807
704824.12500000 7059405.00000000 33.77000046 -0.891936 0.050231 0.449362
704824.50000000 7059405.50000000 33.65000153 0.114330 0.687465 0.717161
704824.25000000 7059405.50000000 34.88000107 0.000978 0.999999 0.000978
704824.81250000 7059406.00000000 33.59000015 0.000000 0.000000 0.000000
704824.25000000 7059405.50000000 35.54000092 0.338460 -0.787601 0.514908
704824.43750000 7059406.00000000 35.88000107 0.215512 -0.823837 0.524260
704824.68750000 7059406.00000000 36.09000015 0.441420 -0.454451 0.773707
704824.87500000 7059406.50000000 36.25000000 0.000978 0.999999 0.000978
704825.06250000 7059406.50000000 36.58000183 0.082988 -0.703210 0.706122
704825.25000000 7059407.00000000 36.77999878 0.311354 -0.637227 0.704983
704825.62500000 7059407.50000000 37.33000183 -0.064933 -0.708495 0.702723
704825.87500000 7059407.50000000 37.56000137 -0.270079 -0.293188 0.917114
704827.12500000 7059409.00000000 36.79000092 -0.272386 0.727955 0.629196
704827.68750000 7059409.50000000 36.33000183 0.000978 0.999999 0.000978
704828.12500000 7059410.00000000 35.97000122 0.000978 0.999999 0.000978
704820.18750000 7059401.50000000 35.29000092 -0.100747 0.795754 0.597181
704821.18750000 7059402.50000000 33.65000153 -0.221043 -0.196929 0.955175
704821.43750000 7059403.00000000 33.75999832 0.584646 -0.170711 0.793125
704821.81250000 7059403.00000000 33.65999985 -0.046292 0.009258 0.998885
704822.12500000 7059403.50000000 33.61000061 0.061279 -0.003116 0.998116
704822.43750000 7059404.00000000 33.66999817 0.157228 0.012443 0.987484
704822.75000000 7059404.00000000 33.65999985 -0.087863 0.001059 0.996132
704823.06250000 7059404.50000000 33.59000015 0.618673 0.123141 0.775938
704823.31250000 7059405.00000000 33.61999893 0.000000 0.000000 0.000000
704823.31250000 7059405.00000000 34.36999893 -0.997144 0.061313 0.044102
704823.62500000 7059405.00000000 33.70000076 -0.384344 -0.099847 0.917775
704823.93750000 7059405.50000000 33.66999817 0.023415 -0.552321 0.833302
704823.50000000 7059405.00000000 35.45999908 0.499723 -0.827714 0.255276
704823.87500000 7059405.50000000 34.50999832 0.000978 0.999999 0.000978
704823.62500000 7059405.50000000 35.79999924 0.391021 -0.618705 0.681400
704824.06250000 7059406.00000000 36.29000092 -0.196163 -0.816586 0.542870
704824.25000000 7059406.00000000 36.50000000 0.181562 -0.614870 0.767444
704824.87500000 7059407.00000000 37.27999878 0.000978 0.999999 0.000978
704825.06250000 7059407.00000000 37.54000092 0.438530 -0.341079 0.831478
704825.25000000 7059407.50000000 37.77000046 0.403077 0.180590 0.897171
704826.68750000 7059409.00000000 36.52000046 -0.524450 0.608767 0.595277
704827.25000000 7059409.50000000 36.04999924 -0.155810 0.736693 0.658032
704827.68750000 7059410.00000000 35.61000061 0.000978 0.999999 0.000978
704823.43750000 7059406.00000000 36.50000000 0.000978 0.999999 0.000978
704823.56250000 7059406.00000000 36.75999832 0.545989 -0.660226 0.515749
704823.75000000 7059406.50000000 37.02000046 0.000978 0.999999 0.000978
704824.00000000 7059406.50000000 37.27000046 0.614131 -0.482892 0.624226
704824.18750000 7059407.00000000 37.43999863 -0.159033 -0.631590 0.758817
704824.43750000 7059407.00000000 37.68000031 0.303677 -0.248986 0.919666
704824.81250000 7059407.50000000 37.38000107 -0.226348 -0.027545 0.973657
704825.37500000 7059408.00000000 36.93999863 -0.307280 0.533362 0.788102
704825.81250000 7059408.50000000 36.56999969 -0.323094 0.464940 0.824283
704826.75000000 7059409.50000000 35.72999954 -0.435633 0.609218 0.662629
704819.81250000 7059402.00000000 34.90999985 0.360475 0.413996 0.835862
704820.56250000 7059402.50000000 33.79999924 0.336368 -0.498973 0.798675
704820.81250000 7059403.00000000 33.81000137 0.347583 -0.040056 0.936793
704820.75000000 7059403.00000000 34.79999924 -0.482597 0.644023 0.593578
704821.50000000 7059403.50000000 33.63999939 -0.028235 0.042875 0.998681
704821.81250000 7059404.00000000 33.61000061 0.086124 -0.005316 0.996270
704822.12500000 7059404.00000000 33.61999893 -0.000981 -0.004907 0.999987
704822.43750000 7059404.50000000 33.63000107 0.098320 -0.011885 0.995084
704822.75000000 7059405.00000000 33.61999893 -0.100676 0.011908 0.994848
704823.06250000 7059405.00000000 33.61000061 -0.012908 -0.004965 0.999904
704822.56250000 7059405.00000000 35.52999878 0.420164 -0.669274 0.612809
704823.37500000 7059405.50000000 33.68999863 -0.089254 -0.730129 0.677455
704823.18750000 7059405.50000000 36.22999954 0.456441 -0.603572 0.653730
704819.25000000 7059401.50000000 33.70000076 -0.046892 -0.205602 0.977512
704819.06250000 7059401.50000000 34.95000076 -0.079779 0.747024 0.659992
704820.06250000 7059402.50000000 33.90999985 0.000978 -0.999999 0.000978
704820.31250000 7059403.00000000 34.11000061 0.588865 -0.125447 0.798436
704821.00000000 7059403.50000000 33.88000107 0.058270 0.429571 0.901151
704821.43750000 7059404.00000000 33.63000107 0.317869 0.066169 0.945823
704821.68750000 7059404.00000000 33.65999985 0.000985 0.008867 0.999960
704822.06250000 7059404.50000000 33.63000107 -0.072048 -0.033336 0.996844
704822.37500000 7059405.00000000 33.61999893 -0.158233 0.057433 0.985730
704822.68750000 7059405.50000000 33.61000061 -0.067394 0.067394 0.995448
704822.06250000 7059405.00000000 35.75999832 0.000978 -0.999999 0.000978
704822.25000000 7059405.00000000 36.02999878 0.777840 -0.352685 0.520171
704822.50000000 7059405.50000000 36.18000031 0.000978 0.999999 0.000978
704822.68750000 7059405.50000000 36.49000168 0.250110 -0.526629 0.812469
704822.87500000 7059406.00000000 36.65000153 0.000978 0.999999 0.000978
704823.06250000 7059406.00000000 36.93999863 0.389264 -0.519561 0.760612
704823.31250000 7059406.50000000 37.15000153 -0.218661 -0.606358 0.764538
704823.50000000 7059406.50000000 37.40000153 -0.100229 -0.570867 0.814902
704824.06250000 7059407.50000000 37.43999863 -0.515322 0.184795 0.836836
704824.62500000 7059408.00000000 36.97999954 -0.289421 0.727551 0.622016
704826.06250000 7059409.00000000 35.72999954 -0.344171 0.657351 0.670400
704827.56250000 7059410.50000000 34.41999817 -0.183034 0.558177 0.809282
704819.43750000 7059402.00000000 33.84999847 -0.007706 -0.126605 0.991923
704819.81250000 7059402.50000000 33.65000153 0.104316 -0.076804 0.991574
704819.93750000 7059403.00000000 34.86999893 -0.346023 0.865827 0.361402
704820.37500000 7059403.50000000 34.56000137 -0.178082 0.513297 0.839532
704820.75000000 7059403.50000000 33.72999954 -0.121954 0.161374 0.979329
704821.06250000 7059404.00000000 33.63999939 0.076613 0.305152 0.949217
704821.37500000 7059404.50000000 33.61999893 -0.014894 -0.002979 0.999885
704821.62500000 7059404.50000000 33.63000107 -0.115998 0.046174 0.992176
704821.93750000 7059405.00000000 33.61999893 0.048841 -0.017666 0.998650
704821.43750000 7059404.50000000 35.56000137 0.130971 -0.548903 0.825562
704821.62500000 7059405.00000000 35.86999893 0.182946 -0.674900 0.714871
704821.81250000 7059405.00000000 36.08000183 -0.043960 -0.656562 0.752990
704822.00000000 7059405.50000000 36.31000137 0.249236 -0.779059 0.575281
704822.43750000 7059406.00000000 36.84000015 0.000978 0.999999 0.000978
704822.62500000 7059406.00000000 37.09000015 0.292928 -0.619471 0.728319
704823.31250000 7059407.00000000 37.61000061 -0.690324 -0.261847 0.674455
704823.81250000 7059407.50000000 37.25000000 -0.049664 0.304353 0.951264
704824.31250000 7059408.00000000 36.79999924 -0.222992 0.916423 0.332329
704824.75000000 7059408.50000000 36.38999939 0.001376 0.766300 0.642481
704825.18750000 7059409.00000000 36.06999969 -0.273477 0.915931 0.293735
704825.75000000 7059409.50000000 35.52000046 -0.440047 0.818138 0.370148
704826.25000000 7059410.00000000 35.11999893 0.000978 0.999999 0.000978
704826.68750000 7059410.00000000 34.74000168 -0.590593 0.667554 0.453401
704827.31250000 7059411.00000000 34.04999924 -0.600167 0.232272 0.765408
704827.56250000 7059411.00000000 34.20999908 -0.533877 0.229244 0.813893
704819.56250000 7059403.00000000 34.54999924 -0.352185 0.466924 0.811140
704820.00000000 7059403.50000000 34.40000153 0.177024 0.073459 0.981461
704820.56250000 7059404.00000000 33.63000107 -0.096702 0.313951 0.944502
704820.87500000 7059404.00000000 33.63000107 -0.034054 0.486286 0.873136
704821.18750000 7059404.50000000 33.61000061 0.109711 0.009776 0.993915
704821.50000000 7059405.00000000 33.65999985 -0.024335 -0.062426 0.997753
704820.93750000 7059404.50000000 35.68000031 0.319665 -0.374727 0.870284
704821.18750000 7059405.00000000 35.90999985 0.000978 -0.999999 0.000978
704821.75000000 7059405.50000000 36.72999954 0.557354 -0.510206 0.655017
704821.93750000 7059406.00000000 36.97000122 0.000978 0.999999 0.000978
704822.12500000 7059406.00000000 37.25000000 0.410138 -0.439089 0.799367
704822.37500000 7059406.50000000 37.45999908 0.000978 -0.999999 0.000978
704822.93750000 7059407.00000000 37.43999863 0.355796 -0.650926 0.670601
704823.43750000 7059407.50000000 37.09999847 0.000978 0.999999 0.000978
704823.87500000 7059408.00000000 36.65000153 -0.104658 0.691332 0.714917
704824.43750000 7059408.50000000 36.13999939 -0.041140 0.750444 0.659653
704824.87500000 7059409.00000000 35.79999924 -0.009376 0.869274 0.494241
704825.87500000 7059410.00000000 34.95000076 -0.536849 0.760671 0.364928
704826.43750000 7059410.50000000 34.34999847 -0.073092 0.586172 0.806883
704826.93750000 7059411.00000000 33.81000137 0.001118 0.157685 0.987489
704827.18750000 7059411.00000000 34.06000137 -0.623749 0.049729 0.780041
704827.43750000 7059411.50000000 34.18999863 0.173889 -0.357675 0.917514
704818.50000000 7059401.50000000 33.63000107 0.020258 -0.075702 0.996925
704818.31250000 7059401.50000000 34.70999908 -0.862764 -0.020316 0.505198
704818.50000000 7059402.00000000 35.06999969 0.038230 -0.715034 0.698043
704819.06250000 7059402.00000000 33.63000107 -0.289234 0.086900 0.953306
704819.37500000 7059402.50000000 33.63000107 -0.023737 0.145811 0.989028
704819.06250000 7059402.50000000 35.06999969 -0.023644 -0.297412 0.954456
704818.37500000 7059402.00000000 33.65999985 -0.611069 -0.211941 0.762676
704818.25000000 7059402.00000000 34.52999878 -0.795068 0.503916 0.337544
704818.43750000 7059402.00000000 35.00000000 -0.533362 0.307280 0.788102
704819.00000000 7059402.50000000 33.61000061 -0.009366 -0.491065 0.871072
704818.68750000 7059402.50000000 35.06000137 0.190671 0.447855 0.873539
704819.50000000 7059403.00000000 34.47000122 -0.132552 0.609142 0.781906
704819.75000000 7059403.50000000 34.75000000 0.331246 -0.159386 0.929985
704820.50000000 7059404.00000000 33.61000061 0.591385 0.271118 0.759446
704820.81250000 7059404.50000000 33.61000061 -0.079615 0.009554 0.996780
704820.31250000 7059404.00000000 35.56000137 -0.023078 -0.506351 0.862019
704821.12500000 7059405.00000000 33.63999939 0.019590 -0.038149 0.999080
704820.62500000 7059404.50000000 35.65999985 -0.015309 -0.661084 0.750156
704820.75000000 7059404.50000000 36.00999832 0.213237 -0.364099 0.906621
704821.00000000 7059405.00000000 36.15999985 0.000978 0.999999 0.000978
704821.18750000 7059405.00000000 36.40000153 0.309891 -0.440699 0.842468
704821.37500000 7059405.50000000 36.63000107 0.000978 0.999999 0.000978
704821.56250000 7059405.50000000 36.90999985 0.176006 -0.653517 0.736164
704821.75000000 7059406.00000000 37.15000153 0.000978 -0.999999 0.000978
704822.00000000 7059406.00000000 37.38000107 0.068647 -0.502944 0.861589
704822.12500000 7059406.50000000 37.66999817 0.419441 -0.311098 0.852811
704823.00000000 7059407.00000000 37.09000015 0.133753 -0.545299 0.827502
704823.50000000 7059408.00000000 36.61999893 -0.381705 0.738837 0.555357
704825.00000000 7059409.00000000 35.34999847 -0.517440 0.605085 0.605085
704825.56250000 7059409.50000000 34.81000137 -0.230209 0.740740 0.631117
704826.00000000 7059410.00000000 34.54000092 0.020912 0.768168 0.639907
704826.37500000 7059410.50000000 33.61999893 -0.509556 0.509556 0.693330
704826.37500000 7059410.50000000 34.22999954 -0.894864 0.439849 0.075836
704826.87500000 7059411.00000000 33.81000137 -0.012883 0.002973 0.999913
704827.12500000 7059411.50000000 33.95000076 -0.600841 -0.727163 0.332001
704827.31250000 7059411.50000000 34.22000122 0.227324 -0.666296 0.710193
704827.50000000 7059412.00000000 34.49000168 0.348982 -0.414709 0.840374
704817.56250000 7059401.50000000 33.63999939 0.073885 -0.026770 0.996907
704817.87500000 7059402.00000000 33.72999954 0.009187 -0.035726 0.999319
704818.18750000 7059402.00000000 33.63999939 -0.211789 -0.117943 0.970173
704818.12500000 7059402.00000000 34.52000046 -0.579191 0.766436 0.277694
704818.43750000 7059402.50000000 34.50000000 -0.086608 -0.181754 0.979523
704818.75000000 7059403.00000000 34.52000046 -0.207814 -0.315255 0.925974
704819.00000000 7059403.00000000 34.72999954 0.099308 0.078761 0.991935
704819.18750000 7059403.50000000 34.99000168 -0.068738 -0.980424 0.184508
704819.37500000 7059403.50000000 35.20999908 0.474046 -0.451082 0.756178
704819.56250000 7059404.00000000 35.43000031 0.000978 0.999999 0.000978
704819.75000000 7059404.00000000 35.68999863 0.126517 -0.629607 0.766543
704820.00000000 7059404.50000000 35.93000031 0.000978 0.999999 0.000978
704820.18750000 7059404.50000000 36.18000031 0.384015 -0.457925 0.801771
704820.37500000 7059405.00000000 36.43999863 0.000978 0.999999 0.000978
704820.56250000 7059405.00000000 36.68000031 0.358127 -0.533140 0.766490
704821.00000000 7059405.50000000 37.16999817 0.107403 -0.502647 0.857794
704821.18750000 7059406.00000000 37.41999817 0.588208 0.012398 0.808614
704822.31250000 7059407.00000000 36.95999908 -0.226930 0.680790 0.696440
704822.81250000 7059407.50000000 36.52000046 -0.425690 0.751122 0.504583
704823.31250000 7059408.00000000 36.11000061 -0.617035 0.613672 0.492619
704824.18750000 7059409.00000000 35.45000076 0.000978 0.999999 0.000978
704824.68750000 7059409.50000000 34.90000153 -0.373945 0.670465 0.640813
704825.87500000 7059410.50000000 33.65000153 -0.070715 -0.013721 0.997402
704826.18750000 7059411.00000000 33.65999985 -0.115454 -0.402002 0.908331
704826.18750000 7059411.00000000 34.22999954 0.818076 -0.106074 0.565243
704826.75000000 7059411.50000000 33.74000168 0.000978 -0.999999 0.000978
704826.68750000 7059411.50000000 34.50999832 0.269113 -0.641730 0.718165
704826.93750000 7059412.00000000 34.79999924 0.000978 0.999999 0.000978
704827.12500000 7059412.00000000 35.00999832 0.515749 -0.660226 0.545989
704817.12500000 7059401.50000000 33.70000076 0.062071 -0.057715 0.996402
704817.43750000 7059402.00000000 33.61000061 -0.390585 -0.142415 0.909484
704817.75000000 7059402.00000000 33.63000107 -0.156004 -0.171223 0.972803
704817.93750000 7059402.50000000 33.77999878 -0.660052 0.423963 0.620150
704818.00000000 7059402.50000000 34.40999985 -0.380462 -0.537218 0.752759
704818.31250000 7059403.00000000 33.70999908 -0.058965 -0.936889 0.344618
704818.12500000 7059403.00000000 34.72999954 -0.125945 -0.204819 0.970663
704818.37500000 7059403.00000000 34.95999908 0.371899 -0.481375 0.793706
704818.56250000 7059403.50000000 35.18000031 0.000978 0.999999 0.000978
704818.81250000 7059403.50000000 35.41999817 0.293773 -0.685469 0.666205
704819.00000000 7059404.00000000 35.70999908 0.395867 -0.657570 0.641007
704819.37500000 7059404.50000000 36.20000076 0.000978 0.999999 0.000978
704819.56250000 7059404.50000000 36.49000168 0.293606 -0.701125 0.649784
704820.18750000 7059405.50000000 37.16999817 0.596169 -0.762908 0.250108
704820.43750000 7059405.50000000 37.45999908 0.468520 -0.626373 0.623014
704820.62500000 7059406.00000000 37.68000031 -0.071010 -0.018017 0.997313
704821.93750000 7059407.00000000 36.68000031 -0.481128 0.331867 0.811407
704822.43750000 7059407.50000000 36.18000031 -0.538213 0.494619 0.682407
704822.93750000 7059408.00000000 35.72999954 -0.447630 0.418542 0.790221
704823.43750000 7059408.50000000 35.36000061 -0.220075 0.555575 0.801813
704823.87500000 7059409.00000000 34.93999863 -0.202917 0.692396 0.692396
704825.06250000 7059410.00000000 33.61000061 0.112239 -0.141204 0.983598
704825.37500000 7059410.50000000 33.63999939 -0.063152 -0.236512 0.969574
704825.68750000 7059411.00000000 33.63999939 0.052666 0.007229 0.998586
704826.00000000 7059411.00000000 33.63999939 -0.058843 0.001032 0.998267
704825.93750000 7059411.00000000 34.56999969 0.393931 -0.400259 0.827412
704826.12500000 7059411.50000000 34.86000061 0.000978 -0.999999 0.000978
704826.31250000 7059411.50000000 35.04999924 0.473263 -0.437236 0.764753
704826.50000000 7059412.00000000 35.27999878 0.000978 -0.999999 0.000978
704826.75000000 7059412.00000000 35.52000046 0.405056 -0.401880 0.821232
704826.93750000 7059412.50000000 35.70999908 0.000978 0.999999 0.000978
704827.12500000 7059412.50000000 36.00999832 0.448708 -0.378448 0.809591
704817.00000000 7059402.00000000 33.61999893 0.001016 0.041673 0.999131
704817.25000000 7059402.00000000 33.65000153 0.040618 -0.028120 0.998779
704817.50000000 7059402.50000000 33.88000107 -0.054779 -0.835738 0.546390
704817.56250000 7059402.50000000 34.43999863 0.255987 -0.867932 0.425635
704817.93750000 7059403.00000000 35.02999878 0.389995 -0.571006 0.722396
704818.12500000 7059403.50000000 35.27000046 0.000978 -0.999999 0.000978
704818.75000000 7059404.00000000 36.04000092 0.526883 -0.661550 0.533616
704818.93750000 7059404.50000000 36.27000046 0.000978 0.999999 0.000978
704819.12500000 7059404.50000000 36.50999832 0.262262 -0.656450 0.707313
704819.31250000 7059405.00000000 36.79999924 0.000978 0.999999 0.000978
704819.56250000 7059405.00000000 36.95000076 0.000978 0.999999 0.000978
704819.68750000 7059405.00000000 37.27000046 0.250829 -0.727246 0.638904
704819.93750000 7059405.50000000 37.47000122 0.369123 -0.455412 0.810153
704820.18750000 7059406.00000000 37.65000153 -0.051721 -0.283837 0.957477
704821.06250000 7059406.50000000 36.93999863 -0.326697 0.687527 0.648518
704822.06250000 7059407.50000000 36.09000015 -0.102700 0.887720 0.448784
704822.50000000 7059408.00000000 35.72000122 0.139662 0.647253 0.749372
704824.31250000 7059410.00000000 33.63000107 0.000978 -0.999999 0.000978
704824.68750000 7059410.00000000 33.63000107 0.141839 -0.198064 0.969872
704824.93750000 7059410.50000000 33.65999985 0.015525 -0.046576 0.998794
704825.25000000 7059411.00000000 33.63999939 0.018517 -0.103476 0.994460
704825.56250000 7059411.00000000 33.63999939 0.001018 -0.043791 0.999040
704825.43750000 7059411.00000000 34.58000183 0.061146 -0.326543 0.943202
704825.68750000 7059411.50000000 34.84000015 0.251310 -0.678062 0.690706
704825.87500000 7059411.50000000 35.06999969 -0.291524 -0.407522 0.865413
704826.06250000 7059412.00000000 35.31999969 0.000978 0.999999 0.000978
704826.25000000 7059412.00000000 35.59999847 0.333222 -0.376219 0.864536
704826.43750000 7059412.50000000 35.84999847 0.000978 0.999999 0.000978
704826.68750000 7059412.50000000 36.06000137 0.020720 -0.573247 0.819121
704826.87500000 7059413.00000000 36.34999847 0.000978 -0.999999 0.000978
704827.06250000 7059413.00000000 36.58000183 0.614128 -0.405556 0.677031
704816.75000000 7059402.00000000 33.66999817 0.001040 -0.067624 0.997710
704817.18750000 7059402.50000000 34.90000153 0.126035 -0.787350 0.603486
704817.43750000 7059403.00000000 35.13999939 0.242049 -0.889493 0.387575
704817.56250000 7059403.00000000 35.43000031 0.143080 -0.538396 0.830457
704817.81250000 7059403.50000000 35.61999893 -0.233087 -0.930937 0.281117
704818.00000000 7059403.50000000 35.84000015 0.148759 -0.446277 0.882444
704818.18750000 7059404.00000000 36.13000107 -0.112652 -0.871270 0.477701
704818.37500000 7059404.00000000 36.34000015 0.188508 -0.770890 0.608436
704818.56250000 7059404.50000000 36.61999893 0.230403 -0.684940 0.691210
704818.81250000 7059404.50000000 36.77000046 0.316753 -0.583662 0.747667
704819.00000000 7059405.00000000 37.08000183 0.000978 -0.999999 0.000978
704819.37500000 7059405.50000000 37.58000183 0.622958 0.172113 0.763086
704819.68750000 7059406.00000000 37.58000183 -0.052674 -0.231520 0.971403
704821.18750000 7059407.00000000 36.27000046 -0.130223 0.672069 0.728948
704821.68750000 7059407.50000000 35.84999847 -0.260172 0.439706 0.859633
704822.87500000 7059408.50000000 33.70999908 -0.039683 -0.488510 0.871655
704823.12500000 7059409.00000000 33.88999939 0.303002 -0.329869 0.894079
704823.06250000 7059409.00000000 34.63999939 -0.715972 -0.509984 0.476761
704823.81250000 7059409.50000000 33.66999817 -0.010858 -0.000987 0.999941
704824.12500000 7059410.00000000 33.65000153 -0.232072 0.052799 0.971265
704824.43750000 7059410.50000000 33.65999985 -0.033005 0.060687 0.997611
704824.75000000 7059410.50000000 33.65000153 0.000978 -0.999999 0.000978
704824.68750000 7059411.00000000 34.43999863 0.000978 -0.999999 0.000978
704824.93750000 7059411.00000000 34.66999817 -0.103559 -0.581970 0.806590
704825.12500000 7059411.50000000 34.90999985 0.043947 -0.755613 0.653542
704825.31250000 7059411.50000000 35.20000076 0.244188 -0.631739 0.735716
704825.50000000 7059412.00000000 35.40999985 0.303049 -0.859920 0.410731
704825.75000000 7059412.00000000 35.70999908 0.107975 -0.726240 0.678909
704825.93750000 7059412.50000000 35.97999954 0.000978 -0.999999 0.000978
704826.12500000 7059412.50000000 36.25999832 0.327568 -0.582523 0.743886
704826.31250000 7059413.00000000 36.47000122 0.318768 -0.847456 0.424506
704826.50000000 7059413.00000000 36.70000076 0.110572 -0.641320 0.759264
704826.75000000 7059413.50000000 36.95000076 0.000978 -0.999999 0.000978
704826.93750000 7059413.50000000 37.18000031 0.176006 -0.653517 0.736164
704816.50000000 7059402.00000000 33.63999939 -0.104739 -0.308915 0.945305
704815.81250000 7059402.00000000 33.99000168 0.453190 -0.197620 0.869233
704815.93750000 7059402.00000000 34.45999908 0.000978 -0.999999 0.000978
704816.12500000 7059402.00000000 34.72000122 0.549395 -0.783720 0.289739
704816.31250000 7059402.50000000 34.93000031 0.000978 -0.999999 0.000978
704816.50000000 7059402.50000000 35.20000076 0.489309 -0.286082 0.823853
704816.68750000 7059403.00000000 35.52999878 0.000978 0.999999 0.000978
704816.87500000 7059403.00000000 35.70999908 0.729490 -0.507831 0.458206
704817.12500000 7059403.50000000 35.97000122 -0.256659 -0.861099 0.438902
704817.31250000 7059403.50000000 36.20999908 0.419153 -0.564945 0.710737
704817.68750000 7059404.00000000 36.75000000 0.569423 -0.586320 0.576182
704817.87500000 7059404.50000000 37.00000000 0.364132 -0.818899 0.443636
704818.50000000 7059405.00000000 37.72999954 0.468803 -0.064996 0.880908
704818.93750000 7059405.50000000 37.43999863 -0.454609 0.234101 0.859376
704819.43750000 7059406.00000000 37.02000046 -0.539598 0.526150 0.657267
704819.93750000 7059406.50000000 36.54000092 -0.161393 0.604847 0.779815
704820.31250000 7059407.00000000 36.29000092 -0.398356 0.462868 0.791875
704822.00000000 7059408.50000000 33.84999847 0.000978 -0.999999 0.000978
704822.18750000 7059408.50000000 33.97999954 0.534269 -0.257010 0.805297
704822.56250000 7059409.00000000 33.90999985 -0.095308 -0.693549 0.714077
704822.75000000 7059409.50000000 34.09999847 0.034647 0.043047 0.998472
704822.50000000 7059409.00000000 35.47000122 0.070899 0.129014 0.989105
704823.56250000 7059410.00000000 33.65000153 0.074762 -0.007371 0.997174
704823.87500000 7059410.50000000 33.66999817 -0.037842 -0.011250 0.999220
704823.81250000 7059410.50000000 34.52999878 -0.186332 -0.899880 0.394330
704824.25000000 7059411.00000000 35.02000046 0.739798 -0.612521 0.278419
704824.43750000 7059411.50000000 35.33000183 0.000978 0.999999 0.000978
704824.62500000 7059411.50000000 35.59000015 0.595738 -0.619365 0.511355
704824.81250000 7059412.00000000 35.79000092 0.302610 -0.842653 0.445380
704825.06250000 7059412.00000000 36.02999878 0.608872 -0.734181 0.300420
704825.25000000 7059412.50000000 36.25999832 0.483305 -0.862941 0.147474
704825.43750000 7059412.50000000 36.56000137 0.617492 -0.729764 0.293509
704825.62500000 7059413.00000000 36.77999878 0.522597 -0.763545 0.379330
704825.87500000 7059413.00000000 37.02999878 0.639616 -0.555234 0.531607
704826.00000000 7059413.50000000 37.27999878 0.000978 -0.999999 0.000978
704826.25000000 7059413.50000000 37.52000046 0.622558 -0.366307 0.691549
704826.43750000 7059414.00000000 37.72999954 -0.039966 -0.009223 0.999159
704822.50000000 7059409.50000000 34.02999878 -0.095359 -0.088466 0.991504
704822.18750000 7059409.00000000 35.47999954 -0.367259 0.283314 0.885920
704822.50000000 7059409.50000000 35.52000046 0.054085 -0.034996 0.997923
704823.56250000 7059410.50000000 33.70999908 0.192342 -0.181874 0.964327
704823.50000000 7059410.50000000 34.58000183 0.000978 0.999999 0.000978
704823.68750000 7059410.50000000 34.79999924 0.113182 -0.485682 0.866777
704823.87500000 7059411.00000000 35.04999924 0.000978 -0.999999 0.000978
704824.12500000 7059411.00000000 35.31000137 0.376037 -0.586224 0.717591
704824.31250000 7059411.50000000 35.58000183 0.000978 0.999999 0.000978
704824.50000000 7059411.50000000 35.81000137 0.415463 -0.278497 0.865927
704824.68750000 7059412.00000000 36.08000183 0.157382 -0.857513 0.489798
704824.93750000 7059412.00000000 36.25000000 0.303777 -0.622020 0.721672
704825.12500000 7059412.50000000 36.54000092 0.006540 -0.903878 0.427740
704825.31250000 7059412.50000000 36.81000137 0.144252 -0.427044 0.892650
704825.50000000 7059413.00000000 37.02000046 0.000978 -0.999999 0.000978
704825.75000000 7059413.00000000 37.27999878 0.569967 -0.370724 0.733281
704825.93750000 7059413.50000000 37.52000046 0.162103 -0.752945 0.637806
704826.25000000 7059414.00000000 37.65999985 0.000978 -0.999999 0.000978
704826.68750000 7059414.00000000 37.33000183 0.089109 -0.688042 0.720179
704815.37500000 7059401.50000000 34.27000046 -0.749990 -0.149394 0.644357
704815.56250000 7059402.00000000 34.52999878 -0.187763 -0.596873 0.780056
704815.81250000 7059402.00000000 34.77999878 -0.348042 -0.407350 0.844353
704816.00000000 7059402.50000000 35.00000000 0.484985 -0.585674 0.649443
704816.37500000 7059403.00000000 35.50999832 0.000978 0.999999 0.000978
704816.56250000 7059403.00000000 35.75999832 0.118019 -0.537641 0.834873
704817.18750000 7059404.00000000 36.52000046 0.000978 0.999999 0.000978
704817.43750000 7059404.00000000 36.77000046 0.435639 -0.535024 0.723856
704817.62500000 7059404.50000000 37.00999832 0.000978 0.999999 0.000978
704817.81250000 7059404.50000000 37.20000076 0.626750 -0.226630 0.745535
704818.00000000 7059405.00000000 37.45999908 -0.433833 -0.798318 0.417706
704818.18750000 7059405.00000000 37.68999863 0.129912 -0.449694 0.883684
704818.68750000 7059405.50000000 37.34000015 0.026608 -0.645588 0.763222
704819.12500000 7059406.00000000 36.97999954 -0.189149 0.635109 0.748906
704820.06250000 7059407.00000000 36.09999847 -0.371455 0.811462 0.451166
704821.62500000 7059408.50000000 33.88000107 0.000978 -0.999999 0.000978
704821.93750000 7059408.50000000 33.97000122 0.241504 -0.206028 0.948277
704822.25000000 7059409.00000000 33.93000031 0.063272 -0.308613 0.949081
704822.12500000 7059409.00000000 34.95000076 0.000978 -0.999999 0.000978
704815.18750000 7059401.50000000 33.77999878 -0.370970 -0.032541 0.928075
704815.18750000 7059402.00000000 34.59000015 0.765079 0.412719 0.494284
704815.75000000 7059402.50000000 35.34999847 0.363681 -0.835995 0.410913
704816.00000000 7059403.00000000 35.59000015 0.427641 -0.868882 0.249331
704816.18750000 7059403.00000000 35.83000183 0.393653 -0.588009 0.706599
704816.37500000 7059403.50000000 36.04999924 0.044487 -0.896488 0.440829
704816.56250000 7059403.50000000 36.31999969 0.406789 -0.655843 0.635919
704816.75000000 7059404.00000000 36.52999878 0.300109 -0.869858 0.391512
704817.00000000 7059404.00000000 36.81000137 0.115418 -0.910831 0.396316
704817.18750000 7059404.00000000 37.04999924 0.347023 -0.393707 0.851217
704817.37500000 7059404.50000000 37.34000015 -0.325106 -0.783136 0.530098
704817.56250000 7059404.50000000 37.59999847 0.213397 -0.280345 0.935878
704818.25000000 7059405.50000000 37.29999924 -0.666600 -0.268867 0.695237
704818.75000000 7059406.00000000 36.88999939 -0.245364 0.786104 0.567307
704820.31250000 7059407.50000000 35.49000168 -0.469289 0.309197 0.827142
704821.25000000 7059408.50000000 33.99000168 0.432053 -0.438526 0.788052
704821.56250000 7059408.50000000 33.95000076 -0.059772 -0.373244 0.925806
704821.81250000 7059409.00000000 33.99000168 -0.078810 0.029149 0.996463
704821.56250000 7059409.00000000 35.27000046 0.068271 -0.868012 0.491827
704821.81250000 7059409.00000000 35.49000168 -0.356531 0.016613 0.934136
704822.12500000 7059409.50000000 35.47999954 -0.074162 -0.065307 0.995106
704822.37500000 7059409.50000000 35.52000046 0.086461 -0.070741 0.993741
704823.06250000 7059410.50000000 34.63000107 0.601795 -0.710020 0.365669
704823.31250000 7059410.50000000 34.86000061 0.067680 -0.459947 0.885363
704823.50000000 7059411.00000000 35.11000061 0.000978 -0.999999 0.000978
704823.68750000 7059411.00000000 35.36000061 0.012130 -0.508101 0.861212
704823.87500000 7059411.50000000 35.61000061 0.152146 -0.876651 0.456438
704824.12500000 7059411.50000000 35.86000061 0.311750 -0.625115 0.715571
704824.31250000 7059412.00000000 36.11999893 -0.151132 -0.794566 0.588068
704824.50000000 7059412.00000000 36.38999939 -0.023219 -0.520370 0.853625
704824.75000000 7059412.50000000 36.63000107 0.171558 -0.769736 0.614878
704824.93750000 7059412.50000000 36.86999893 0.427218 -0.482871 0.764409
704825.12500000 7059413.00000000 37.13999939 -0.113139 -0.797851 0.592143
704825.31250000 7059413.00000000 37.38000107 -0.077793 -0.516261 0.852891
704825.50000000 7059413.50000000 37.59000015 -0.207700 0.128697 0.969690
704825.81250000 7059413.50000000 37.63000107 0.388711 -0.443099 0.807816
704826.31250000 7059414.00000000 37.18000031 0.518770 -0.208421 0.829119
704824.06250000 7059412.50000000 36.81000137 0.000978 0.999999 0.000978
704824.25000000 7059412.50000000 37.06000137 0.209260 -0.621578 0.754885
704824.43750000 7059413.00000000 37.36000061 -0.316915 -0.180097 0.931198
704824.62500000 7059413.00000000 37.58000183 -0.221451 -0.044774 0.974143
704825.37500000 7059414.00000000 37.31000137 0.284242 0.519801 0.805614
704825.93750000 7059414.50000000 36.77999878 -0.534022 0.638468 0.554237
704814.68750000 7059402.00000000 33.72000122 0.086670 0.011770 0.996168
704815.00000000 7059402.00000000 33.68000031 -0.227781 -0.008262 0.973677
704814.93750000 7059402.00000000 35.24000168 0.715900 -0.536510 0.446815
704815.06250000 7059402.50000000 35.56999969 0.548976 -0.767923 0.330030
704815.31250000 7059402.50000000 35.77999878 0.528695 -0.471990 0.705483
704815.50000000 7059403.00000000 36.00000000 0.000978 -0.999999 0.000978
704815.68750000 7059403.00000000 36.33000183 0.115665 -0.575396 0.809655
704815.93750000 7059403.50000000 36.50000000 0.431272 -0.621098 0.654401
704816.31250000 7059404.00000000 36.99000168 0.000978 0.999999 0.000978
704816.50000000 7059404.00000000 37.25000000 0.566387 -0.363989 0.739404
704817.43750000 7059405.00000000 37.22999954 0.268828 -0.280329 0.921492
704817.93750000 7059405.50000000 36.84999847 0.070797 0.686299 0.723865
704818.37500000 7059406.00000000 36.50999832 -0.505487 0.391712 0.768795
704818.87500000 7059406.50000000 36.00000000 -0.148470 0.598377 0.787338
704819.31250000 7059407.00000000 35.61999893 -0.160323 0.558883 0.813601
704820.37500000 7059408.00000000 33.90999985 -0.012061 -0.483786 0.875103
704820.62500000 7059408.50000000 33.95000076 -0.006641 -0.468854 0.883251
704820.87500000 7059408.50000000 34.15999985 0.026982 -0.083105 0.996175
704820.75000000 7059408.50000000 35.18999863 -0.149334 0.185073 0.971312
704820.93750000 7059409.00000000 35.45999908 -0.031480 -0.308506 0.950701
704821.25000000 7059409.00000000 35.38000107 0.188523 -0.523339 0.831009
704821.50000000 7059409.50000000 35.52999878 0.318837 -0.055506 0.946183
704821.87500000 7059410.00000000 35.49000168 -0.129689 -0.154392 0.979461
704822.56250000 7059410.50000000 33.83000183 -0.222624 0.431802 0.874063
704822.62500000 7059410.50000000 35.06000137 0.808365 -0.253880 0.531122
704822.81250000 7059411.00000000 35.40999985 0.620028 -0.713922 0.325393
704823.06250000 7059411.00000000 35.58000183 0.532214 -0.572763 0.623450
704823.18750000 7059411.50000000 35.90999985 0.000978 0.999999 0.000978
704823.43750000 7059411.50000000 36.09000015 0.536984 -0.450535 0.713208
704823.62500000 7059412.00000000 36.34000015 0.000978 0.999999 0.000978
704823.81250000 7059412.00000000 36.61000061 0.452935 -0.610041 0.650154
704814.18750000 7059402.00000000 33.72999954 0.140492 0.001106 0.990081
704814.50000000 7059402.00000000 33.70000076 0.000989 0.012857 0.999917
704814.81250000 7059402.50000000 33.68000031 -0.773634 -0.049683 0.631682
704814.87500000 7059402.50000000 34.20999908 -0.908257 -0.252213 0.333854
704814.75000000 7059402.50000000 35.97000122 0.694880 -0.412948 0.588741
704814.93750000 7059403.00000000 36.31000137 0.565509 -0.717190 0.407232
704815.56250000 7059403.50000000 37.00000000 0.567537 -0.437719 0.697355
704815.75000000 7059404.00000000 37.29000092 0.000978 -0.999999 0.000978
704815.93750000 7059404.00000000 37.52000046 0.049991 -0.735580 0.675591
704816.18750000 7059404.50000000 37.68999863 0.001381 0.713977 0.700167
704816.62500000 7059405.00000000 37.36000061 -0.237792 0.703928 0.669283
704817.06250000 7059405.50000000 36.90999985 -0.276544 0.874967 0.397437
704817.62500000 7059406.00000000 36.47000122 -0.086596 0.856020 0.509637
704818.06250000 7059406.50000000 36.09999847 -0.353823 0.582095 0.732103
704819.62500000 7059407.50000000 33.84000015 0.163019 -0.425582 0.890115
704819.81250000 7059408.00000000 33.97999954 0.320665 -0.314699 0.893386
704820.18750000 7059408.50000000 33.99000168 0.162967 -0.378367 0.911197
704820.06250000 7059408.50000000 34.97000122 0.000978 -0.999999 0.000978
704820.50000000 7059408.50000000 33.93999863 0.034098 -0.186949 0.981778
704820.12500000 7059408.50000000 35.47999954 -0.912716 -0.166077 0.373319
704820.43750000 7059409.00000000 35.50999832 0.015989 -0.079947 0.996671
704820.75000000 7059409.00000000 35.52999878 0.387839 -0.231523 0.892176
704821.12500000 7059409.50000000 35.45000076 0.277964 -0.146368 0.949375
704821.75000000 7059410.00000000 33.90000153 -0.066797 0.098497 0.992893
704822.18750000 7059410.50000000 33.65999985 -0.216809 0.489716 0.844495
704822.50000000 7059411.00000000 33.65999985 0.050433 0.329757 0.942718
704822.75000000 7059411.00000000 33.65000153 0.098902 0.517443 0.849983
704822.25000000 7059411.00000000 35.59000015 -0.269797 -0.563260 0.780991
704822.43750000 7059411.00000000 35.79999924 0.662725 -0.599290 0.449051
704822.62500000 7059411.50000000 36.06999969 0.139214 -0.842610 0.520220
704822.87500000 7059411.50000000 36.36000061 0.225313 -0.585814 0.778496
704823.06250000 7059412.00000000 36.47000122 0.329499 -0.693084 0.641143
704823.25000000 7059412.00000000 36.79999924 0.552287 -0.596200 0.582688
704823.50000000 7059412.50000000 37.02000046 0.000978 -0.999999 0.000978
704823.68750000 7059412.50000000 37.33000183 0.178274 -0.617101 0.766424
704824.62500000 7059413.50000000 37.24000168 -0.074400 0.860518 0.503958
704825.62500000 7059414.50000000 36.40000153 -0.358515 0.754342 0.549940
704826.06250000 7059415.00000000 36.06000137 -0.481954 0.698750 0.528648
704813.81250000 7059402.00000000 33.70999908 -0.159082 0.010154 0.987213
704814.12500000 7059402.00000000 33.70999908 -0.282623 -0.023449 0.958944
704814.43750000 7059402.50000000 33.68999863 0.079305 0.035850 0.996206
704814.75000000 7059403.00000000 33.68999863 0.000995 0.018902 0.999821
704814.75000000 7059403.00000000 34.49000168 0.000000 0.000000 0.000000
704814.68750000 7059403.00000000 36.15999985 -0.876759 -0.056432 0.477607
704814.75000000 7059403.00000000 36.59999847 0.452127 -0.582260 0.675688
704815.00000000 7059403.50000000 36.79999924 -0.275686 -0.866658 0.415813
704815.12500000 7059403.50000000 37.09000015 -0.006714 -0.508944 0.860773
704815.31250000 7059404.00000000 37.40000153 0.101290 -0.767748 0.632695
704815.56250000 7059404.00000000 37.59999847 -0.134630 -0.420897 0.897062
704815.81250000 7059404.50000000 37.63000107 -0.992394 -0.123096 0.001089
704817.31250000 7059406.00000000 36.34999847 -0.164299 0.882563 0.440555
704817.81250000 7059406.50000000 35.88999939 -0.348269 0.549131 0.759713
704819.18750000 7059407.50000000 33.99000168 0.124088 -0.394574 0.910447
704819.56250000 7059408.00000000 33.90999985 0.080387 -0.087180 0.992944
704819.81250000 7059408.50000000 34.00999832 -0.391052 -0.097420 0.915198
704819.50000000 7059408.00000000 35.45000076 -0.071727 0.146981 0.986535
704819.81250000 7059408.50000000 35.45000076 0.231616 -0.130688 0.963989
704820.06250000 7059409.00000000 35.56000137 0.079282 -0.005285 0.996838
704820.37500000 7059409.00000000 35.50000000 -0.159082 0.010154 0.987213
704821.43750000 7059410.00000000 33.81999969 0.020133 0.471120 0.881839
704821.75000000 7059410.50000000 33.66999817 0.000978 0.999999 0.000978
704822.12500000 7059410.50000000 33.65999985 0.154561 0.211710 0.965034
704822.37500000 7059411.00000000 33.66999817 -0.211633 0.132110 0.968379
704821.87500000 7059410.50000000 35.65000153 0.261603 -0.275898 0.924902
704822.06250000 7059411.00000000 35.86999893 0.280103 -0.693054 0.664243
704822.25000000 7059411.00000000 36.13000107 0.090440 -0.363110 0.927347
704822.87500000 7059412.00000000 36.93000031 0.000978 0.999999 0.000978
704823.06250000 7059412.00000000 37.20000076 0.493972 -0.237045 0.836541
704823.25000000 7059412.50000000 37.47000122 0.051038 -0.870403 0.489688
704823.50000000 7059412.50000000 37.59999847 0.526307 -0.123923 0.841216
704823.81250000 7059413.00000000 37.58000183 -0.870364 0.077085 0.486338
704824.81250000 7059414.00000000 36.63999939 -0.589471 0.589471 0.552312
704825.25000000 7059414.50000000 36.27999878 -0.148571 0.442827 0.884212
704826.25000000 7059415.50000000 35.43000031 -0.655340 0.621989 0.428555
704814.68750000 7059403.50000000 34.11000061 0.942821 0.314274 0.110999
704814.62500000 7059403.50000000 34.95999908 -0.815934 -0.577665 0.023550
704814.56250000 7059403.50000000 35.86999893 0.830325 0.545310 0.114879
704814.50000000 7059403.50000000 36.63000107 -0.834353 -0.402193 0.376957
