704751.75000000 7059399.50000000 37.77999878
704751.93750000 7059400.00000000 37.79000092
704752.18750000 7059400.00000000 37.79000092
704752.37500000 7059400.50000000 37.77000046
704752.62500000 7059400.50000000 37.77000046
704752.81250000 7059401.00000000 37.75000000
704753.06250000 7059401.00000000 37.77000046
704738.87500000 7059383.50000000 38.77999878
704739.12500000 7059384.00000000 38.81000137
704739.31250000 7059384.00000000 38.77999878
704739.56250000 7059384.50000000 38.75999832
704739.75000000 7059384.50000000 37.72000122
704740.00000000 7059385.00000000 37.72999954
704740.18750000 7059385.00000000 37.72999954
704740.43750000 7059385.50000000 37.72999954
704740.68750000 7059385.50000000 37.75999832
704740.87500000 7059386.00000000 37.75000000
704741.12500000 7059386.00000000 37.77000046
704741.31250000 7059386.50000000 37.77999878
704741.56250000 7059386.50000000 37.79000092
704741.75000000 7059387.00000000 37.79000092
704742.00000000 7059387.00000000 38.79000092
704742.25000000 7059387.50000000 38.79000092
704750.43750000 7059397.00000000 38.81000137
704740.68750000 7059389.50000000 37.77999878
704740.93750000 7059389.50000000 37.81999969
704741.12500000 7059390.00000000 38.75000000
704735.50000000 7059382.50000000 38.81000137
704735.75000000 7059383.00000000 38.77999878
704736.00000000 7059383.00000000 38.77999878
704736.00000000 7059383.00000000 37.83000183
704736.18750000 7059383.50000000 37.75000000
704736.37500000 7059383.50000000 38.24000168
704736.62500000 7059384.00000000 37.77999878
704736.81250000 7059384.00000000 37.72999954
704737.06250000 7059384.50000000 37.75000000
704737.25000000 7059384.50000000 37.72999954
704737.50000000 7059385.00000000 37.72000122
704737.75000000 7059385.00000000 37.72000122
704737.93750000 7059385.50000000 37.74000168
704738.18750000 7059385.50000000 37.74000168
704738.43750000 7059386.00000000 37.72000122
704746.50000000 7059395.50000000 33.50999832
704746.75000000 7059395.50000000 33.50999832
704746.81250000 7059396.00000000 38.79000092
704747.06250000 7059396.50000000 38.79000092
704747.25000000 7059396.50000000 38.75000000
704747.50000000 7059397.00000000 38.77000046
704747.50000000 7059397.00000000 37.86000061
704747.75000000 7059397.00000000 37.83000183
704748.00000000 7059397.50000000 37.77999878
704748.18750000 7059397.50000000 37.81000137
704748.43750000 7059398.00000000 37.79000092
704748.62500000 7059398.00000000 37.79999924
704748.87500000 7059398.50000000 37.77999878
704749.12500000 7059398.50000000 37.77000046
704749.31250000 7059399.00000000 37.81000137
704749.56250000 7059399.00000000 37.74000168
704749.75000000 7059399.50000000 37.77000046
704750.00000000 7059400.00000000 37.77999878
704750.18750000 7059400.00000000 37.75999832
704750.43750000 7059400.50000000 37.75000000
704750.62500000 7059400.50000000 37.75999832
704750.87500000 7059401.00000000 37.75000000
704751.06250000 7059401.00000000 37.72999954
704751.31250000 7059401.50000000 37.79000092
704738.62500000 7059386.00000000 37.68999863
704738.87500000 7059386.50000000 37.75000000
704739.06250000 7059387.00000000 37.74000168
704739.31250000 7059387.00000000 37.72999954
704739.50000000 7059387.50000000 37.72999954
704739.75000000 7059387.50000000 37.74000168
704739.93750000 7059388.00000000 37.74000168
704740.18750000 7059388.00000000 37.75999832
704740.43750000 7059388.50000000 37.79000092
704740.62500000 7059388.50000000 37.75000000
704740.87500000 7059389.00000000 37.77999878
704741.06250000 7059389.00000000 37.77999878
704741.25000000 7059389.50000000 38.77000046
704741.50000000 7059389.50000000 38.79000092
704736.43750000 7059383.00000000 38.79999924
704736.62500000 7059383.00000000 38.77000046
704736.87500000 7059383.50000000 38.77999878
704736.87500000 7059383.50000000 37.79999924
704737.12500000 7059383.50000000 37.75000000
704737.31250000 7059384.00000000 38.31999969
704737.56250000 7059384.00000000 37.70999908
704737.75000000 7059384.50000000 37.74000168
704738.00000000 7059384.50000000 37.70999908
704738.18750000 7059385.00000000 37.70000076
704738.43750000 7059385.00000000 37.70000076
704738.62500000 7059385.50000000 37.72000122
704738.87500000 7059386.00000000 37.72999954
704747.75000000 7059396.50000000 38.81000137
704748.00000000 7059396.50000000 38.77000046
704748.18750000 7059397.00000000 38.75999832
704748.43750000 7059397.00000000 38.77999878
704748.43750000 7059397.00000000 37.90000153
704748.68750000 7059397.50000000 37.81000137
704748.87500000 7059397.50000000 37.79000092
704749.12500000 7059398.00000000 37.77999878
704749.31250000 7059398.00000000 37.72999954
704749.56250000 7059398.50000000 37.79999924
704749.75000000 7059399.00000000 37.77000046
704750.00000000 7059399.00000000 37.79000092
704750.25000000 7059399.50000000 37.79999924
704750.43750000 7059399.50000000 37.75999832
704750.68750000 7059400.00000000 37.75999832
704750.93750000 7059400.00000000 37.75000000
704751.12500000 7059400.50000000 37.77000046
704751.37500000 7059400.50000000 37.75000000
704751.56250000 7059401.00000000 37.75000000
704751.75000000 7059401.00000000 37.77000046
704752.00000000 7059401.50000000 37.75000000
704739.12500000 7059386.00000000 37.74000168
704739.31250000 7059386.50000000 37.70000076
704739.50000000 7059386.50000000 37.72999954
704739.75000000 7059387.00000000 37.72999954
704740.00000000 7059387.00000000 37.72999954
704740.18750000 7059387.50000000 37.75000000
704740.43750000 7059387.50000000 37.74000168
704740.68750000 7059388.00000000 37.74000168
704740.93750000 7059388.00000000 37.75999832
704741.12500000 7059388.50000000 37.75000000
704740.68750000 7059389.50000000 37.75999832
704740.87500000 7059390.00000000 37.77999878
704741.12500000 7059390.50000000 38.74000168
704741.31250000 7059390.50000000 38.79999924
704745.56250000 7059395.50000000 38.84000015
704746.00000000 7059396.00000000 38.77000046
704746.25000000 7059396.50000000 38.70000076
704746.50000000 7059396.50000000 37.84000015
704746.68750000 7059397.00000000 37.81000137
704746.93750000 7059397.00000000 37.81999969
704747.12500000 7059397.50000000 37.79999924
704747.37500000 7059397.50000000 37.79999924
704747.56250000 7059398.00000000 37.77000046
704747.81250000 7059398.00000000 37.77000046
704748.00000000 7059398.50000000 37.75999832
704748.25000000 7059398.50000000 37.79000092
704748.43750000 7059399.00000000 37.75999832
704748.68750000 7059399.50000000 37.75999832
704748.93750000 7059399.50000000 37.75000000
704749.12500000 7059400.00000000 37.74000168
704749.37500000 7059400.00000000 37.75999832
704749.62500000 7059400.50000000 37.75999832
704749.81250000 7059400.50000000 37.77999878
704750.06250000 7059401.00000000 37.75000000
704750.25000000 7059401.00000000 37.72999954
704750.50000000 7059401.50000000 37.75000000
704734.25000000 7059382.00000000 38.81000137
704734.43750000 7059382.50000000 38.79000092
704734.68750000 7059382.50000000 38.75999832
704734.87500000 7059383.00000000 37.77000046
704735.12500000 7059383.00000000 37.75999832
704735.31250000 7059383.50000000 37.72999954
704735.56250000 7059383.50000000 37.77999878
704735.75000000 7059384.00000000 37.75000000
704736.00000000 7059384.00000000 37.72999954
704736.25000000 7059384.50000000 37.75000000
704736.50000000 7059384.50000000 37.68999863
704736.68750000 7059385.00000000 37.77999878
704736.87500000 7059385.00000000 37.72000122
704737.12500000 7059385.50000000 37.70000076
704737.31250000 7059386.00000000 37.72000122
704737.56250000 7059386.00000000 37.70999908
704737.75000000 7059386.50000000 37.74000168
704738.00000000 7059386.50000000 37.72999954
704738.25000000 7059387.00000000 37.68999863
704738.43750000 7059387.00000000 37.72999954
704738.68750000 7059387.50000000 37.74000168
704738.93750000 7059387.50000000 37.75000000
704734.43750000 7059382.00000000 38.81000137
704734.68750000 7059382.00000000 38.81000137
704734.87500000 7059382.50000000 38.79999924
704735.12500000 7059383.00000000 38.75000000
704735.31250000 7059383.00000000 37.75000000
704735.56250000 7059383.50000000 37.74000168
704735.75000000 7059383.50000000 38.27999878
704736.00000000 7059384.00000000 37.74000168
704736.18750000 7059384.00000000 37.74000168
704741.31250000 7059390.00000000 38.79000092
704746.00000000 7059395.50000000 38.77000046
704746.12500000 7059395.50000000 33.54999924
704746.18750000 7059396.00000000 38.79000092
704746.43750000 7059396.00000000 38.75999832
704746.68750000 7059396.50000000 38.70000076
704746.87500000 7059397.00000000 37.81999969
704747.12500000 7059397.00000000 37.79000092
704747.37500000 7059397.50000000 37.79999924
704747.56250000 7059397.50000000 37.79999924
704747.81250000 7059398.00000000 37.77000046
704748.00000000 7059398.00000000 37.75999832
704748.25000000 7059398.50000000 37.77999878
704748.43750000 7059398.50000000 37.79000092
704748.68750000 7059399.00000000 37.77000046
704748.93750000 7059399.00000000 37.77000046
704749.12500000 7059399.50000000 37.75999832
704749.37500000 7059399.50000000 37.75999832
704749.56250000 7059400.00000000 37.75000000
704749.81250000 7059400.00000000 37.74000168
704750.00000000 7059400.50000000 37.72999954
704750.25000000 7059401.00000000 37.72000122
704750.43750000 7059401.00000000 37.72000122
704750.68750000 7059401.50000000 37.77000046
704736.43750000 7059384.50000000 37.70999908
704736.68750000 7059384.50000000 37.72999954
704736.87500000 7059385.00000000 37.72999954
704737.12500000 7059385.00000000 37.72999954
704737.31250000 7059385.50000000 37.68999863
704737.56250000 7059385.50000000 37.74000168
704737.81250000 7059386.00000000 37.70999908
704738.00000000 7059386.00000000 37.70999908
704738.25000000 7059386.50000000 37.72999954
704738.43750000 7059386.50000000 37.72000122
704738.68750000 7059387.00000000 37.72999954
704738.87500000 7059387.00000000 37.75000000
704739.12500000 7059387.50000000 37.72999954
704739.31250000 7059388.00000000 37.75999832
704739.56250000 7059388.00000000 37.72000122
704739.75000000 7059388.50000000 37.75999832
704740.00000000 7059388.50000000 37.77999878
704740.25000000 7059389.00000000 37.77999878
704740.43750000 7059389.00000000 37.75000000
704745.25000000 7059397.00000000 37.79999924
704745.50000000 7059397.00000000 37.79999924
704745.68750000 7059397.50000000 37.79999924
704745.93750000 7059397.50000000 37.81000137
704746.18750000 7059398.00000000 37.79000092
704746.37500000 7059398.00000000 37.77999878
704746.62500000 7059398.50000000 37.79999924
704746.81250000 7059398.50000000 37.77999878
704747.06250000 7059399.00000000 37.77000046
704747.25000000 7059399.00000000 37.77999878
704747.50000000 7059399.50000000 37.77999878
704747.68750000 7059399.50000000 37.75999832
704747.93750000 7059400.00000000 37.79999924
704748.18750000 7059400.50000000 37.75000000
704748.37500000 7059400.50000000 37.75000000
704748.56250000 7059401.00000000 37.79000092
704748.81250000 7059401.00000000 37.75999832
704749.06250000 7059401.50000000 37.77000046
704732.81250000 7059382.00000000 38.79999924
704733.00000000 7059382.50000000 38.75000000
704733.25000000 7059382.50000000 37.77000046
704733.50000000 7059383.00000000 37.70999908
704733.68750000 7059383.00000000 37.75000000
704733.93750000 7059383.50000000 37.75000000
704734.12500000 7059383.50000000 37.75000000
704734.37500000 7059384.00000000 37.75000000
704734.56250000 7059384.00000000 37.75000000
704734.81250000 7059384.50000000 37.74000168
704735.00000000 7059384.50000000 37.72999954
704735.25000000 7059385.00000000 38.08000183
704735.43750000 7059385.00000000 37.75000000
704737.56250000 7059387.00000000 37.75000000
704737.75000000 7059387.00000000 37.72999954
704738.00000000 7059387.50000000 37.75999832
704738.25000000 7059387.50000000 37.74000168
704738.43750000 7059388.00000000 37.75000000
704738.68750000 7059388.00000000 37.77000046
704738.87500000 7059388.50000000 37.70000076
704739.06250000 7059388.50000000 37.75000000
704739.31250000 7059389.00000000 37.74000168
704739.56250000 7059389.00000000 37.74000168
704739.75000000 7059389.50000000 37.77000046
704740.00000000 7059389.50000000 37.75999832
704740.18750000 7059390.00000000 37.77000046
704740.43750000 7059390.00000000 37.75999832
704740.68750000 7059390.50000000 37.79999924
704740.87500000 7059391.00000000 38.74000168
704741.06250000 7059391.00000000 38.77999878
704744.68750000 7059395.50000000 38.79000092
704744.87500000 7059395.50000000 38.79000092
704745.12500000 7059396.00000000 38.77000046
704745.31250000 7059396.00000000 38.77000046
704745.56250000 7059396.50000000 37.83000183
704745.75000000 7059396.50000000 37.79999924
704746.00000000 7059397.00000000 37.81999969
704746.25000000 7059397.00000000 37.79999924
704746.43750000 7059397.50000000 37.81000137
704746.68750000 7059397.50000000 37.79000092
704746.87500000 7059398.00000000 37.81000137
704747.12500000 7059398.00000000 37.79000092
704747.31250000 7059398.50000000 37.75999832
704747.56250000 7059398.50000000 37.75999832
704747.81250000 7059399.00000000 37.75999832
704748.00000000 7059399.00000000 37.77999878
704748.25000000 7059399.50000000 37.77000046
704748.50000000 7059400.00000000 37.75000000
704748.68750000 7059400.00000000 37.75000000
704748.87500000 7059400.50000000 37.77999878
704749.12500000 7059400.50000000 37.79999924
704749.37500000 7059401.00000000 37.74000168
704749.56250000 7059401.00000000 37.75000000
704749.81250000 7059401.50000000 37.72999954
704733.06250000 7059381.50000000 38.81999969
704733.31250000 7059382.00000000 38.81000137
704733.50000000 7059382.00000000 38.79000092
704733.75000000 7059382.50000000 38.75000000
704734.00000000 7059382.50000000 37.77999878
704734.18750000 7059383.00000000 37.74000168
704734.43750000 7059383.00000000 37.75999832
704734.68750000 7059383.50000000 37.74000168
704734.87500000 7059383.50000000 37.74000168
704735.12500000 7059384.00000000 37.77000046
704735.31250000 7059384.00000000 37.68999863
704735.50000000 7059384.50000000 38.11000061
704735.75000000 7059384.50000000 37.70999908
704736.00000000 7059385.00000000 37.74000168
704736.18750000 7059385.00000000 37.75000000
704736.43750000 7059385.50000000 37.74000168
704736.62500000 7059385.50000000 37.75000000
704736.87500000 7059386.00000000 37.72000122
704737.06250000 7059386.00000000 37.70999908
704737.31250000 7059386.50000000 37.72000122
704734.00000000 7059382.00000000 38.84000015
704739.12500000 7059388.00000000 37.70999908
704739.37500000 7059388.00000000 37.75999832
704739.56250000 7059388.50000000 37.75000000
704739.81250000 7059388.50000000 37.75000000
704740.00000000 7059389.00000000 37.75999832
704740.25000000 7059389.00000000 37.77000046
704740.43750000 7059389.50000000 37.75000000
704746.93750000 7059400.00000000 37.81000137
704747.18750000 7059400.50000000 37.79000092
704732.81250000 7059383.00000000 38.75999832
704733.00000000 7059383.00000000 37.77000046
704733.25000000 7059383.00000000 37.72999954
704733.50000000 7059383.50000000 37.74000168
704733.68750000 7059384.00000000 37.79000092
704733.93750000 7059384.00000000 37.75999832
704734.12500000 7059384.50000000 37.74000168
704734.37500000 7059384.50000000 37.77000046
704734.62500000 7059385.00000000 37.75000000
704734.81250000 7059385.00000000 37.72999954
704735.06250000 7059385.50000000 38.27999878
704735.25000000 7059385.50000000 37.72000122
704735.50000000 7059386.00000000 37.75000000
704735.68750000 7059386.00000000 37.72999954
704735.93750000 7059386.50000000 37.72999954
704736.12500000 7059386.50000000 37.68999863
704736.37500000 7059387.00000000 37.74000168
704736.62500000 7059387.00000000 37.75999832
704736.81250000 7059387.50000000 37.74000168
704737.00000000 7059387.50000000 37.75999832
704737.25000000 7059388.00000000 37.72999954
704737.50000000 7059388.50000000 37.72999954
704737.68750000 7059388.50000000 37.75000000
704737.93750000 7059389.00000000 37.79000092
704738.18750000 7059389.00000000 37.72999954
704738.43750000 7059389.50000000 37.75000000
704738.62500000 7059389.50000000 37.77000046
704738.81250000 7059390.00000000 37.77999878
704739.06250000 7059390.00000000 37.77000046
704739.25000000 7059390.50000000 37.75000000
704739.50000000 7059390.50000000 37.75999832
704739.68750000 7059391.00000000 37.75999832
704739.93750000 7059391.00000000 37.75999832
704740.12500000 7059391.50000000 37.79999924
704740.37500000 7059391.50000000 37.81999969
704740.56250000 7059392.00000000 38.77000046
704740.81250000 7059392.50000000 38.79999924
704742.81250000 7059394.50000000 38.79999924
704743.00000000 7059395.00000000 38.77999878
704743.25000000 7059395.00000000 38.77000046
704743.50000000 7059395.50000000 38.75000000
704743.50000000 7059395.50000000 37.88999939
704743.68750000 7059395.50000000 37.83000183
704743.93750000 7059396.00000000 37.81000137
704744.18750000 7059396.00000000 37.79999924
704744.37500000 7059396.50000000 37.77999878
704744.62500000 7059397.00000000 37.79999924
704744.87500000 7059397.00000000 37.81000137
704745.06250000 7059397.50000000 37.77999878
704745.31250000 7059397.50000000 37.77999878
704745.50000000 7059398.00000000 37.75999832
704745.75000000 7059398.00000000 37.81000137
704745.93750000 7059398.50000000 37.79999924
704746.18750000 7059398.50000000 37.79000092
704746.37500000 7059399.00000000 37.79999924
704746.62500000 7059399.00000000 37.79000092
704746.81250000 7059399.50000000 37.75999832
704747.06250000 7059399.50000000 37.77999878
704747.25000000 7059400.00000000 37.75999832
704747.50000000 7059400.00000000 37.77999878
704747.75000000 7059400.50000000 37.72999954
704747.93750000 7059401.00000000 37.75000000
704748.18750000 7059401.00000000 37.75999832
704748.43750000 7059401.50000000 37.75999832
704735.68750000 7059385.50000000 37.72999954
704735.93750000 7059385.50000000 37.74000168
704736.12500000 7059386.00000000 37.72999954
704736.37500000 7059386.00000000 37.75999832
704736.62500000 7059386.50000000 37.70999908
704736.81250000 7059387.00000000 37.74000168
704737.00000000 7059387.00000000 37.74000168
704737.25000000 7059387.50000000 37.72999954
704737.50000000 7059387.50000000 37.74000168
704737.68750000 7059388.00000000 37.74000168
704737.93750000 7059388.00000000 37.72999954
704738.12500000 7059388.50000000 37.74000168
704738.37500000 7059388.50000000 37.75000000
704738.56250000 7059389.00000000 37.74000168
704738.81250000 7059389.00000000 37.72999954
704739.06250000 7059389.50000000 37.74000168
704739.25000000 7059389.50000000 37.74000168
704739.50000000 7059390.00000000 37.74000168
704739.68750000 7059390.00000000 37.77999878
704739.93750000 7059390.50000000 37.79000092
704740.18750000 7059390.50000000 37.77999878
704740.37500000 7059391.00000000 37.77999878
704740.56250000 7059391.50000000 38.72999954
704740.56250000 7059391.50000000 37.81999969
704740.81250000 7059391.50000000 38.77000046
704741.00000000 7059392.00000000 38.75999832
704743.68750000 7059395.00000000 38.77999878
704743.93750000 7059395.00000000 38.77999878
704744.12500000 7059395.50000000 38.77000046
704744.37500000 7059396.00000000 38.77999878
704744.37500000 7059396.00000000 37.93999863
704744.56250000 7059396.00000000 37.81000137
704744.81250000 7059396.50000000 37.81999969
704745.06250000 7059396.50000000 37.79000092
704743.62500000 7059397.00000000 37.75999832
704743.87500000 7059397.00000000 37.77000046
704744.06250000 7059397.50000000 37.79000092
704744.31250000 7059397.50000000 37.79999924
704744.56250000 7059398.00000000 37.77999878
704744.75000000 7059398.00000000 37.77999878
704745.00000000 7059398.50000000 37.79000092
704745.25000000 7059398.50000000 37.79000092
704745.43750000 7059399.00000000 37.79999924
704745.68750000 7059399.00000000 37.79000092
704745.87500000 7059399.50000000 37.79000092
704746.06250000 7059399.50000000 37.77999878
704746.31250000 7059400.00000000 37.79000092
704746.56250000 7059400.00000000 37.77999878
704746.75000000 7059400.50000000 37.79000092
704747.00000000 7059400.50000000 37.79000092
704747.18750000 7059401.00000000 37.75999832
704747.43750000 7059401.00000000 37.77000046
704736.06250000 7059388.00000000 37.74000168
704736.31250000 7059388.00000000 37.68999863
704736.50000000 7059388.50000000 37.70999908
704736.75000000 7059388.50000000 37.75000000
704737.00000000 7059389.00000000 37.74000168
704737.18750000 7059389.00000000 37.75999832
704737.37500000 7059389.50000000 37.79999924
704737.62500000 7059389.50000000 37.74000168
704737.87500000 7059390.00000000 37.77000046
704738.06250000 7059390.00000000 37.77000046
704738.31250000 7059390.50000000 37.75000000
704738.56250000 7059390.50000000 37.79000092
704738.75000000 7059391.00000000 37.75999832
704739.00000000 7059391.00000000 37.75999832
704739.18750000 7059391.50000000 37.75000000
704739.43750000 7059391.50000000 37.79999924
704739.62500000 7059392.00000000 37.77999878
704739.87500000 7059392.50000000 37.77999878
704740.06250000 7059392.50000000 37.81999969
704740.31250000 7059393.00000000 38.75000000
704740.50000000 7059393.00000000 38.77999878
704732.68750000 7059383.00000000 38.75999832
704732.93750000 7059383.50000000 37.77000046
704733.12500000 7059383.50000000 37.81000137
704733.37500000 7059384.00000000 37.79999924
704733.62500000 7059384.00000000 37.74000168
704733.81250000 7059384.50000000 37.75999832
704734.00000000 7059385.00000000 37.75999832
704734.25000000 7059385.00000000 37.77000046
704734.43750000 7059385.50000000 37.72000122
704734.68750000 7059385.50000000 37.74000168
704734.87500000 7059386.00000000 38.27000046
704735.12500000 7059386.00000000 37.72000122
704735.37500000 7059386.50000000 37.72000122
704735.56250000 7059386.50000000 37.74000168
704735.81250000 7059387.00000000 37.70999908
704736.06250000 7059387.00000000 37.70999908
704736.25000000 7059387.50000000 37.72999954
704736.50000000 7059387.50000000 37.72999954
704736.68750000 7059388.00000000 37.72999954
704736.93750000 7059388.00000000 37.70000076
704737.18750000 7059388.50000000 37.72000122
704737.37500000 7059388.50000000 37.75000000
704737.56250000 7059389.00000000 37.72999954
704737.81250000 7059389.00000000 37.74000168
704738.00000000 7059389.50000000 37.74000168
704738.25000000 7059390.00000000 37.77000046
704738.50000000 7059390.00000000 37.79999924
704738.68750000 7059390.50000000 37.75999832
704738.93750000 7059390.50000000 37.77000046
704739.12500000 7059391.00000000 37.74000168
704739.37500000 7059391.00000000 37.75999832
704739.56250000 7059391.50000000 37.75999832
704739.81250000 7059391.50000000 37.75999832
704740.06250000 7059392.00000000 37.79000092
704740.25000000 7059392.00000000 38.75999832
704740.25000000 7059392.00000000 37.79000092
704740.50000000 7059392.50000000 38.75999832
704740.68750000 7059392.50000000 38.70999908
704747.37500000 7059400.50000000 37.77000046
704747.62500000 7059401.00000000 37.77000046
704747.81250000 7059401.00000000 37.77000046
704742.43750000 7059395.00000000 38.77999878
704742.68750000 7059395.00000000 38.75000000
704742.93750000 7059395.50000000 37.88000107
704743.18750000 7059395.50000000 37.79000092
704743.37500000 7059396.00000000 37.77000046
704743.62500000 7059396.00000000 37.79000092
704743.81250000 7059396.50000000 37.77000046
704744.06250000 7059396.50000000 37.77999878
704744.25000000 7059397.00000000 37.81000137
704744.50000000 7059397.00000000 37.79000092
704744.75000000 7059397.50000000 37.77000046
704744.93750000 7059397.50000000 37.77000046
704745.18750000 7059398.00000000 37.77000046
704745.37500000 7059398.50000000 37.75999832
704745.56250000 7059398.50000000 37.79000092
704745.81250000 7059399.00000000 37.79999924
704746.06250000 7059399.00000000 37.81000137
704746.25000000 7059399.50000000 37.79999924
704746.50000000 7059399.50000000 37.79999924
704746.75000000 7059400.00000000 37.77000046
704743.93750000 7059398.50000000 37.75000000
704744.12500000 7059399.00000000 37.74000168
704744.31250000 7059399.00000000 37.77000046
704744.56250000 7059399.50000000 37.75999832
704744.81250000 7059399.50000000 37.93000031
704745.00000000 7059400.00000000 38.04999924
704745.25000000 7059400.00000000 38.02999878
704745.50000000 7059400.50000000 37.75000000
704745.68750000 7059400.50000000 37.79000092
704745.93750000 7059401.00000000 37.79000092
704746.12500000 7059401.00000000 37.81000137
704746.37500000 7059401.50000000 37.77000046
704736.62500000 7059389.00000000 37.75999832
704736.81250000 7059389.00000000 37.79000092
704737.06250000 7059389.50000000 37.75999832
704737.31250000 7059390.00000000 37.79999924
704737.50000000 7059390.00000000 37.81999969
704737.75000000 7059390.00000000 37.75999832
704737.93750000 7059390.50000000 37.79000092
704738.18750000 7059391.00000000 37.77000046
704738.37500000 7059391.00000000 37.75999832
704738.62500000 7059391.50000000 37.77999878
704738.81250000 7059391.50000000 37.77999878
704739.06250000 7059392.00000000 37.77000046
704739.25000000 7059392.00000000 37.77000046
704739.50000000 7059392.50000000 37.81000137
704739.75000000 7059392.50000000 37.81000137
704739.93750000 7059393.00000000 37.79999924
704740.18750000 7059393.00000000 38.74000168
704740.37500000 7059393.50000000 38.79999924
704740.81250000 7059394.00000000 38.77999878
704741.06250000 7059394.00000000 38.77000046
704741.25000000 7059394.50000000 38.75000000
704741.50000000 7059395.00000000 38.70000076
704741.75000000 7059395.00000000 37.84000015
704741.93750000 7059395.50000000 37.79999924
704742.18750000 7059395.50000000 37.79000092
704742.37500000 7059396.00000000 37.77999878
704742.62500000 7059396.00000000 37.79999924
704742.81250000 7059396.50000000 37.77000046
704743.06250000 7059396.50000000 37.77000046
704743.31250000 7059397.00000000 37.75999832
704743.50000000 7059397.00000000 37.75000000
704743.75000000 7059397.50000000 37.75999832
704744.00000000 7059397.50000000 37.77000046
704744.18750000 7059398.00000000 37.79000092
704744.43750000 7059398.00000000 37.77000046
704744.62500000 7059398.50000000 37.79000092
704744.81250000 7059398.50000000 37.77000046
704745.06250000 7059399.00000000 37.77999878
704745.31250000 7059399.00000000 37.77999878
704745.50000000 7059399.50000000 37.77999878
704745.75000000 7059400.00000000 37.77999878
704745.93750000 7059400.00000000 37.77999878
704746.18750000 7059400.50000000 37.81999969
704746.43750000 7059400.50000000 37.77999878
704746.62500000 7059401.00000000 37.79999924
704746.87500000 7059401.00000000 37.75999832
704747.06250000 7059401.50000000 37.79000092
704732.81250000 7059384.50000000 37.77000046
704733.06250000 7059384.50000000 37.75999832
704733.25000000 7059385.00000000 37.77000046
704733.50000000 7059385.00000000 37.75999832
704733.75000000 7059385.50000000 37.74000168
704733.93750000 7059386.00000000 37.75000000
704734.18750000 7059386.00000000 37.72000122
704734.37500000 7059386.50000000 37.75000000
704734.62500000 7059386.50000000 38.13000107
704734.81250000 7059387.00000000 37.75000000
704735.06250000 7059387.00000000 37.72999954
704735.25000000 7059387.50000000 37.72999954
704735.50000000 7059387.50000000 37.74000168
704735.68750000 7059388.00000000 37.72000122
704735.93750000 7059388.00000000 37.74000168
704736.18750000 7059388.50000000 37.75999832
704736.37500000 7059388.50000000 37.75000000
704732.75000000 7059384.00000000 37.77999878
704732.93750000 7059384.00000000 37.75999832
704733.18750000 7059384.50000000 37.75999832
704733.37500000 7059384.50000000 37.74000168
704733.62500000 7059385.00000000 37.77000046
704733.87500000 7059385.00000000 37.74000168
704734.06250000 7059385.50000000 37.75999832
704734.31250000 7059385.50000000 37.75999832
704734.50000000 7059386.00000000 37.74000168
704734.75000000 7059386.00000000 38.15000153
704735.00000000 7059386.50000000 37.75999832
704735.18750000 7059386.50000000 37.74000168
704735.43750000 7059387.00000000 37.74000168
704735.62500000 7059387.00000000 37.75000000
704735.87500000 7059387.50000000 37.74000168
704741.62500000 7059394.50000000 38.79000092
704741.87500000 7059394.50000000 38.75000000
704742.06250000 7059395.00000000 38.68999863
704742.31250000 7059395.00000000 37.81000137
704742.56250000 7059395.50000000 37.81000137
704742.75000000 7059395.50000000 37.77000046
704743.00000000 7059396.00000000 37.79000092
704743.18750000 7059396.00000000 37.79999924
704743.43750000 7059396.50000000 37.77999878
704734.43750000 7059388.00000000 37.77000046
704734.62500000 7059388.00000000 37.75000000
704734.87500000 7059388.50000000 37.77000046
704735.06250000 7059388.50000000 37.77000046
704735.31250000 7059389.00000000 37.77000046
704735.50000000 7059389.00000000 37.79999924
704740.68750000 7059395.50000000 37.77999878
704740.87500000 7059395.50000000 37.79000092
704741.12500000 7059396.00000000 37.77999878
704741.31250000 7059396.00000000 37.77999878
704741.56250000 7059396.50000000 37.75999832
704741.75000000 7059396.50000000 37.75999832
704742.00000000 7059397.00000000 37.77999878
704742.18750000 7059397.00000000 37.77000046
704742.43750000 7059397.50000000 37.77000046
704742.62500000 7059397.50000000 37.77999878
704742.87500000 7059398.00000000 37.75000000
704743.12500000 7059398.00000000 37.77000046
704743.31250000 7059398.50000000 37.75999832
704743.56250000 7059399.00000000 37.77000046
704743.75000000 7059399.00000000 37.75999832
704744.00000000 7059399.50000000 37.77999878
704744.25000000 7059399.50000000 37.83000183
704744.43750000 7059400.00000000 38.04999924
704744.68750000 7059400.00000000 38.06999969
704744.87500000 7059400.50000000 38.06000137
704745.06250000 7059400.50000000 38.06000137
704745.31250000 7059401.00000000 37.81000137
704745.56250000 7059401.00000000 37.86999893
704735.75000000 7059389.50000000 37.83000183
704736.00000000 7059390.00000000 37.86000061
704736.18750000 7059390.00000000 37.81000137
704736.43750000 7059390.50000000 37.88999939
704736.62500000 7059390.50000000 37.81999969
704736.87500000 7059391.00000000 37.81999969
704737.06250000 7059391.00000000 37.79000092
704737.31250000 7059391.50000000 37.81000137
704737.56250000 7059391.50000000 37.81000137
704737.75000000 7059392.00000000 37.79000092
704738.00000000 7059392.00000000 37.79000092
704738.18750000 7059392.50000000 37.79000092
704738.43750000 7059392.50000000 37.79000092
704738.62500000 7059393.00000000 37.79999924
704738.87500000 7059393.00000000 37.75999832
704739.12500000 7059393.50000000 37.79999924
704739.31250000 7059393.50000000 37.81000137
704739.50000000 7059394.00000000 37.79000092
704739.75000000 7059394.50000000 38.70999908
704740.00000000 7059394.50000000 38.72999954
704740.18750000 7059395.00000000 37.81000137
704740.43750000 7059395.00000000 37.77999878
704732.81250000 7059385.50000000 37.75999832
704733.00000000 7059385.50000000 37.72999954
704733.18750000 7059386.00000000 37.74000168
704733.43750000 7059386.00000000 37.74000168
704733.68750000 7059386.50000000 37.74000168
704733.87500000 7059386.50000000 37.72999954
704734.12500000 7059387.00000000 37.75000000
704734.31250000 7059387.00000000 37.79000092
704734.56250000 7059387.50000000 37.81000137
704734.75000000 7059387.50000000 37.75999832
704735.00000000 7059388.00000000 37.74000168
704735.25000000 7059388.00000000 37.77999878
704735.43750000 7059388.50000000 37.77000046
704735.68750000 7059388.50000000 37.77000046
704735.93750000 7059389.00000000 37.79000092
704736.12500000 7059389.00000000 37.81000137
704736.31250000 7059389.50000000 37.81000137
704736.56250000 7059390.00000000 37.84000015
704736.81250000 7059390.00000000 37.84000015
704737.00000000 7059390.50000000 37.83000183
704737.25000000 7059390.50000000 37.83000183
704737.43750000 7059391.00000000 37.81000137
704737.68750000 7059391.00000000 37.79999924
704737.87500000 7059391.50000000 37.79000092
704738.12500000 7059391.50000000 37.77000046
704738.31250000 7059392.00000000 37.77000046
704738.56250000 7059392.00000000 37.79000092
704738.81250000 7059392.50000000 37.75999832
704739.06250000 7059392.50000000 37.79999924
704739.25000000 7059393.00000000 37.79999924
704739.43750000 7059393.00000000 37.79000092
704739.68750000 7059393.50000000 37.79999924
704739.87500000 7059394.00000000 38.72999954
704740.12500000 7059394.00000000 38.75000000
704740.56250000 7059394.50000000 37.84000015
704740.81250000 7059395.00000000 37.81999969
704741.00000000 7059395.00000000 37.81000137
704741.25000000 7059395.50000000 37.79000092
704741.50000000 7059395.50000000 37.79000092
704741.68750000 7059396.00000000 37.77999878
704741.93750000 7059396.00000000 37.77000046
704742.12500000 7059396.50000000 37.77000046
704742.37500000 7059396.50000000 37.81000137
704742.56250000 7059397.00000000 37.77999878
704742.81250000 7059397.00000000 37.77000046
704743.00000000 7059397.50000000 37.75999832
704743.25000000 7059397.50000000 37.77999878
704743.50000000 7059398.00000000 37.77000046
704743.68750000 7059398.00000000 37.75999832
704737.12500000 7059392.00000000 37.79000092
704737.31250000 7059392.50000000 37.79000092
704737.56250000 7059392.50000000 37.79000092
704737.75000000 7059393.00000000 37.77999878
704738.00000000 7059393.00000000 37.77999878
704738.25000000 7059393.50000000 37.79000092
704738.43750000 7059393.50000000 37.79000092
704743.56250000 7059400.00000000 37.79000092
704743.81250000 7059400.00000000 37.77000046
704744.00000000 7059400.50000000 37.90000153
704744.25000000 7059400.50000000 38.04000092
704744.43750000 7059401.00000000 37.95999908
704744.68750000 7059401.00000000 37.77000046
704738.68750000 7059394.00000000 37.81000137
704738.87500000 7059394.00000000 37.77000046
704739.12500000 7059394.50000000 37.77999878
704739.31250000 7059395.00000000 37.77000046
704739.56250000 7059395.00000000 38.72999954
704739.75000000 7059395.50000000 38.75000000
704740.00000000 7059395.50000000 37.77999878
704740.25000000 7059396.00000000 37.79000092
704740.43750000 7059396.00000000 37.75999832
704740.68750000 7059396.50000000 37.75999832
704740.87500000 7059396.50000000 37.75999832
704741.12500000 7059397.00000000 37.75999832
704741.37500000 7059397.00000000 37.75000000
704741.56250000 7059397.50000000 37.75999832
704741.81250000 7059397.50000000 37.77000046
704742.00000000 7059398.00000000 37.74000168
704742.25000000 7059398.00000000 37.75999832
704742.43750000 7059398.50000000 37.75999832
704742.68750000 7059398.50000000 37.75999832
704742.87500000 7059399.00000000 37.75999832
704743.12500000 7059399.50000000 37.75000000
704743.31250000 7059399.50000000 37.74000168
704732.81250000 7059386.50000000 37.79000092
704733.06250000 7059386.50000000 37.75000000
704733.25000000 7059387.00000000 37.75999832
704733.50000000 7059387.00000000 37.74000168
704733.68750000 7059387.50000000 37.72999954
704733.93750000 7059387.50000000 37.77000046
704734.12500000 7059388.00000000 38.15999985
704734.37500000 7059388.00000000 37.74000168
704734.56250000 7059388.50000000 37.77000046
704734.81250000 7059389.00000000 37.75999832
704735.00000000 7059389.00000000 37.79999924
704735.25000000 7059389.50000000 37.84000015
704735.50000000 7059389.50000000 37.79999924
704735.68750000 7059390.00000000 37.86000061
704735.93750000 7059390.00000000 37.88999939
704736.18750000 7059390.50000000 37.81000137
704736.37500000 7059390.50000000 37.81999969
704736.56250000 7059391.00000000 37.81999969
704736.81250000 7059391.00000000 37.79000092
704737.00000000 7059391.50000000 37.79000092
704737.25000000 7059391.50000000 37.79999924
704737.50000000 7059392.00000000 37.77999878
704737.68750000 7059392.00000000 37.77999878
704737.93750000 7059392.50000000 37.77999878
704738.12500000 7059392.50000000 37.79000092
704738.37500000 7059393.00000000 37.79999924
704738.56250000 7059393.50000000 37.79000092
704738.81250000 7059393.50000000 37.77999878
704739.06250000 7059394.00000000 37.77999878
704739.25000000 7059394.00000000 37.77999878
704739.50000000 7059394.50000000 37.81000137
704739.68750000 7059394.50000000 38.75000000
704739.93750000 7059395.00000000 38.77999878
704739.93750000 7059395.00000000 37.88000107
704740.12500000 7059395.00000000 37.77999878
704740.37500000 7059395.50000000 37.77999878
704740.56250000 7059395.50000000 37.77999878
704740.81250000 7059396.00000000 37.77999878
704741.06250000 7059396.00000000 37.77000046
704741.25000000 7059396.50000000 37.74000168
704741.50000000 7059396.50000000 37.75999832
704741.68750000 7059397.00000000 37.75999832
704741.93750000 7059397.50000000 37.77000046
704742.12500000 7059397.50000000 37.75000000
704742.37500000 7059398.00000000 37.74000168
704742.62500000 7059398.00000000 37.77999878
704742.81250000 7059398.50000000 37.75999832
704743.06250000 7059398.50000000 37.75999832
704743.25000000 7059399.00000000 37.77999878
704743.50000000 7059399.00000000 37.74000168
704743.68750000 7059399.50000000 37.75000000
704743.93750000 7059399.50000000 37.75000000
704744.12500000 7059400.00000000 37.90000153
704744.37500000 7059400.00000000 38.04999924
704744.56250000 7059400.50000000 38.04999924
704744.81250000 7059400.50000000 38.06000137
704745.00000000 7059401.00000000 38.04000092
704745.25000000 7059401.00000000 38.16999817
704732.81250000 7059386.00000000 37.77000046
704733.06250000 7059386.50000000 37.74000168
704733.31250000 7059386.50000000 37.75999832
704733.50000000 7059387.00000000 37.75999832
704733.75000000 7059387.00000000 37.72000122
704734.00000000 7059387.50000000 37.72999954
704734.25000000 7059387.50000000 37.97999954
704738.12500000 7059395.00000000 37.75000000
704738.37500000 7059395.00000000 37.74000168
704738.56250000 7059395.50000000 37.75999832
704738.75000000 7059395.50000000 37.75999832
704739.00000000 7059396.00000000 38.88000107
704739.00000000 7059396.00000000 37.72999954
704739.18750000 7059396.00000000 38.84999847
704739.43750000 7059396.50000000 38.86999893
704739.62500000 7059396.50000000 39.74000168
704739.68750000 7059396.50000000 37.77000046
704739.87500000 7059397.00000000 37.75000000
704740.12500000 7059397.00000000 37.75999832
704740.31250000 7059397.50000000 37.74000168
704740.56250000 7059397.50000000 37.75000000
704740.75000000 7059398.00000000 37.79000092
704741.00000000 7059398.00000000 37.77000046
704741.25000000 7059398.50000000 37.75000000
704741.43750000 7059398.50000000 37.75999832
704741.68750000 7059399.00000000 37.75999832
704741.93750000 7059399.50000000 37.72999954
704742.12500000 7059399.50000000 37.74000168
704742.31250000 7059400.00000000 37.74000168
704742.56250000 7059400.00000000 37.75999832
704742.75000000 7059400.50000000 37.75999832
704743.00000000 7059400.50000000 37.75999832
704743.25000000 7059401.00000000 37.77999878
704743.43750000 7059401.00000000 37.75000000
704743.62500000 7059401.50000000 37.75999832
704734.62500000 7059390.00000000 37.81000137
704734.81250000 7059390.50000000 37.81000137
704735.00000000 7059390.50000000 37.93000031
704735.25000000 7059391.00000000 37.81000137
704735.50000000 7059391.00000000 37.79999924
704735.68750000 7059391.50000000 37.79000092
704735.93750000 7059391.50000000 37.77000046
704736.18750000 7059392.00000000 37.75000000
704736.43750000 7059392.00000000 37.75999832
704736.62500000 7059392.50000000 37.79000092
704736.81250000 7059392.50000000 37.79000092
704737.06250000 7059393.00000000 37.77000046
704737.25000000 7059393.00000000 37.79999924
704737.50000000 7059393.50000000 37.79000092
704737.68750000 7059394.00000000 37.77999878
704737.93750000 7059394.00000000 37.79000092
704738.12500000 7059394.50000000 37.75999832
704738.37500000 7059394.50000000 37.77000046
704738.62500000 7059395.00000000 37.75999832
704738.81250000 7059395.00000000 37.77000046
704739.06250000 7059395.50000000 37.75999832
704739.25000000 7059395.50000000 39.91999817
704739.25000000 7059395.50000000 38.77000046
704739.50000000 7059396.00000000 38.88000107
704739.75000000 7059396.00000000 38.88000107
704739.75000000 7059396.00000000 37.74000168
704739.93750000 7059396.50000000 37.77000046
704740.18750000 7059396.50000000 37.75999832
704740.37500000 7059397.00000000 37.74000168
704740.62500000 7059397.00000000 37.75000000
704740.81250000 7059397.50000000 37.77999878
704741.06250000 7059397.50000000 37.75000000
704741.25000000 7059398.00000000 37.72999954
704741.50000000 7059398.50000000 37.74000168
704741.68750000 7059398.50000000 37.77999878
704741.93750000 7059399.00000000 37.74000168
704742.18750000 7059399.00000000 37.74000168
704742.37500000 7059399.50000000 37.74000168
704742.62500000 7059399.50000000 37.74000168
704742.87500000 7059400.00000000 37.74000168
704743.06250000 7059400.00000000 37.74000168
704743.31250000 7059400.50000000 37.75999832
704743.50000000 7059400.50000000 37.75999832
704743.75000000 7059401.00000000 37.75999832
704743.93750000 7059401.00000000 37.75000000
704732.81250000 7059388.00000000 37.75999832
704733.06250000 7059388.00000000 37.77000046
704733.25000000 7059388.50000000 37.75000000
704733.50000000 7059388.50000000 37.75000000
704733.68750000 7059389.00000000 37.83000183
704733.93750000 7059389.50000000 37.86000061
704734.12500000 7059389.50000000 37.79000092
704734.37500000 7059390.00000000 37.77000046
704732.87500000 7059387.00000000 37.77000046
704733.06250000 7059387.50000000 37.72000122
704733.31250000 7059387.50000000 37.77999878
704733.50000000 7059388.00000000 37.75999832
704733.75000000 7059388.00000000 37.75999832
704734.00000000 7059388.50000000 37.90000153
704734.18750000 7059388.50000000 37.79000092
704734.43750000 7059389.00000000 37.75999832
704734.68750000 7059389.00000000 37.77999878
704734.87500000 7059389.50000000 37.77999878
704735.12500000 7059390.00000000 37.81999969
704735.31250000 7059390.00000000 38.13999939
704735.50000000 7059390.50000000 37.84999847
704735.75000000 7059390.50000000 37.83000183
704736.00000000 7059391.00000000 37.81999969
704736.18750000 7059391.00000000 37.79000092
704736.43750000 7059391.50000000 37.77999878
704736.62500000 7059391.50000000 37.79000092
704736.87500000 7059392.00000000 37.81000137
704737.12500000 7059395.00000000 37.75000000
704737.31250000 7059395.00000000 37.75999832
704737.56250000 7059395.50000000 37.75999832
704737.81250000 7059395.50000000 37.75000000
704738.00000000 7059396.00000000 37.74000168
704738.25000000 7059396.00000000 37.74000168
704738.50000000 7059396.50000000 37.72000122
704738.68750000 7059396.50000000 37.74000168
704738.87500000 7059397.00000000 38.75999832
704739.12500000 7059397.00000000 38.77000046
704739.12500000 7059397.00000000 37.81000137
704739.37500000 7059397.50000000 37.74000168
704739.56250000 7059397.50000000 37.72000122
704739.81250000 7059398.00000000 37.72999954
704740.00000000 7059398.00000000 37.75000000
704740.25000000 7059398.50000000 37.72999954
704740.43750000 7059398.50000000 37.74000168
704740.68750000 7059399.00000000 37.75000000
704740.87500000 7059399.50000000 37.74000168
704741.12500000 7059399.50000000 37.75000000
704741.37500000 7059400.00000000 37.72000122
704741.56250000 7059400.00000000 37.77999878
704741.81250000 7059400.50000000 37.72999954
704742.06250000 7059400.50000000 37.75000000
704742.25000000 7059401.00000000 37.74000168
704742.50000000 7059401.00000000 37.75999832
704742.68750000 7059401.50000000 37.75999832
704733.75000000 7059390.00000000 37.77000046
704733.93750000 7059390.50000000 37.79999924
704734.18750000 7059390.50000000 37.79000092
704734.37500000 7059391.00000000 37.77999878
704734.62500000 7059391.00000000 37.77999878
704734.81250000 7059391.50000000 37.77000046
704735.06250000 7059391.50000000 37.79000092
704735.25000000 7059392.00000000 37.79000092
704735.50000000 7059392.00000000 37.79999924
704735.75000000 7059392.50000000 37.77000046
704735.93750000 7059393.00000000 37.77000046
704736.18750000 7059393.00000000 37.77000046
704736.37500000 7059393.50000000 37.79999924
704736.62500000 7059393.50000000 37.75000000
704736.87500000 7059394.00000000 37.75999832
704737.06250000 7059394.00000000 37.79999924
704737.31250000 7059394.50000000 37.75000000
704737.50000000 7059394.50000000 37.77000046
704737.75000000 7059395.00000000 37.75000000
704737.93750000 7059395.00000000 37.75999832
704738.18750000 7059395.50000000 37.75000000
704738.37500000 7059395.50000000 37.77000046
704738.62500000 7059396.00000000 37.75999832
704738.81250000 7059396.00000000 38.88000107
704739.00000000 7059396.50000000 39.93999863
704739.06250000 7059396.50000000 38.77999878
704739.25000000 7059397.00000000 38.75999832
704739.31250000 7059396.50000000 37.81000137
704739.50000000 7059397.00000000 37.74000168
704739.75000000 7059397.50000000 37.72000122
704740.00000000 7059397.50000000 37.72000122
704740.18750000 7059398.00000000 37.75000000
704740.43750000 7059398.00000000 37.74000168
704740.62500000 7059398.50000000 37.77000046
704740.87500000 7059398.50000000 37.75000000
704741.06250000 7059399.00000000 37.77000046
704741.31250000 7059399.00000000 37.74000168
704741.50000000 7059399.50000000 37.75000000
704741.75000000 7059399.50000000 37.72999954
704741.93750000 7059400.00000000 37.72000122
704742.18750000 7059400.00000000 37.75999832
704742.43750000 7059400.50000000 37.75999832
704742.62500000 7059400.50000000 37.72000122
704742.87500000 7059401.00000000 37.75999832
704743.06250000 7059401.00000000 37.75000000
704732.81250000 7059389.00000000 37.77000046
704733.06250000 7059389.50000000 37.77999878
704733.31250000 7059389.50000000 37.77999878
704733.50000000 7059390.00000000 38.04000092
704732.75000000 7059388.50000000 37.75999832
704733.00000000 7059388.50000000 37.75999832
704733.18750000 7059389.00000000 37.75000000
704733.43750000 7059389.00000000 37.72999954
704733.62500000 7059389.50000000 37.84999847
704733.87500000 7059389.50000000 37.79000092
704734.12500000 7059390.00000000 37.79000092
704734.31250000 7059390.00000000 37.79999924
704734.56250000 7059390.50000000 37.79000092
704734.75000000 7059391.00000000 37.77999878
704735.00000000 7059391.00000000 37.79000092
704735.25000000 7059391.50000000 37.77999878
704735.43750000 7059391.50000000 37.79000092
704735.68750000 7059392.00000000 37.77999878
704735.87500000 7059392.00000000 37.79999924
704736.12500000 7059392.50000000 37.79000092
704736.31250000 7059392.50000000 37.77999878
704736.56250000 7059393.00000000 37.79999924
704736.75000000 7059393.00000000 37.77999878
704737.00000000 7059393.50000000 37.77000046
704737.18750000 7059393.50000000 37.77000046
704737.43750000 7059394.00000000 37.77000046
704737.62500000 7059394.00000000 37.79000092
704737.87500000 7059394.50000000 37.79000092
704733.81250000 7059392.00000000 37.81000137
704734.00000000 7059392.50000000 37.79000092
704734.25000000 7059392.50000000 37.79999924
704734.43750000 7059393.00000000 37.77000046
704734.68750000 7059393.00000000 37.79999924
704734.93750000 7059393.50000000 37.81000137
704740.00000000 7059399.50000000 38.31999969
704740.25000000 7059399.50000000 38.31999969
704740.50000000 7059400.00000000 37.81000137
704740.68750000 7059400.00000000 38.20000076
704740.93750000 7059400.50000000 37.75000000
704741.12500000 7059400.50000000 37.74000168
704741.37500000 7059401.00000000 37.75999832
704741.62500000 7059401.50000000 37.72000122
704735.12500000 7059393.50000000 37.81999969
704735.37500000 7059394.00000000 37.81999969
704735.62500000 7059394.00000000 37.77999878
704735.81250000 7059394.50000000 37.77000046
704736.06250000 7059394.50000000 37.77999878
704736.25000000 7059395.00000000 37.75999832
704736.50000000 7059395.00000000 37.75999832
704736.68750000 7059395.50000000 37.75000000
704736.93750000 7059395.50000000 37.75999832
704737.12500000 7059396.00000000 37.74000168
704737.37500000 7059396.00000000 37.74000168
704737.56250000 7059396.50000000 37.74000168
704737.81250000 7059397.00000000 37.72000122
704738.00000000 7059397.00000000 37.75000000
704738.25000000 7059397.50000000 37.70000076
704738.50000000 7059397.50000000 37.72000122
704738.68750000 7059398.00000000 38.79999924
704738.93750000 7059398.00000000 38.06000137
704739.18750000 7059398.50000000 37.74000168
704739.37500000 7059398.50000000 37.72000122
704739.56250000 7059399.00000000 37.70000076
704739.81250000 7059399.00000000 37.75999832
704732.75000000 7059390.00000000 38.15000153
704733.00000000 7059390.50000000 38.13999939
704733.25000000 7059390.50000000 38.31999969
704733.43750000 7059391.00000000 37.83000183
704733.68750000 7059391.50000000 37.81999969
704733.93750000 7059391.50000000 37.81000137
