647385.504 6862146.670 80.616
647385.510 6862147.013 80.445
647385.515 6862147.355 80.025
647385.520 6862147.697 79.554
647385.526 6862148.040 79.393
647385.531 6862148.382 79.328
647385.536 6862148.725 79.315
647385.542 6862149.067 79.285
647385.547 6862149.410 79.242
647385.553 6862149.752 79.074
647385.558 6862150.095 78.837
647385.563 6862150.437 78.588
647385.569 6862150.780 78.506
647385.574 6862151.122 78.536
647385.580 6862151.465 78.217
647385.585 6862151.807 77.597
647385.590 6862152.150 76.737
647385.049 6862139.483 77.424
647385.054 6862139.826 77.718
647385.065 6862140.510 77.750
647385.070 6862140.853 77.737
647385.059 6862140.168 77.753
647385.081 6862141.538 77.842
647385.086 6862141.880 77.995
647385.076 6862141.195 77.765
647385.108 6862143.250 79.773
647385.113 6862143.593 79.974
647385.119 6862143.935 80.114
647385.124 6862144.278 80.244
647385.103 6862142.908 79.426
647385.129 6862144.620 80.356
647385.135 6862144.963 80.455
647385.140 6862145.305 80.552
647385.097 6862142.565 78.818
647385.146 6862145.648 80.618
647385.151 6862145.990 80.661
647385.162 6862146.675 80.656
647385.156 6862146.333 80.680
647385.092 6862142.223 78.190
647385.167 6862147.018 80.504
647385.172 6862147.360 80.125
647385.178 6862147.703 79.769
647385.183 6862148.045 79.622
647385.189 6862148.388 79.569
647385.194 6862148.730 79.535
647385.199 6862149.073 79.495
647385.205 6862149.415 79.415
647385.210 6862149.758 79.295
647385.216 6862150.100 79.090
647385.221 6862150.443 78.827
647385.226 6862150.785 79.081
647385.232 6862151.128 80.213
647385.237 6862151.470 79.332
647385.242 6862151.813 78.150
647385.248 6862152.155 78.076
647385.259 6862152.840 77.923
647385.253 6862152.498 77.960
647384.701 6862139.146 77.443
647384.706 6862139.488 77.791
647384.712 6862139.831 77.831
647384.717 6862140.173 77.847
647384.722 6862140.516 77.818
647384.728 6862140.858 77.809
647384.733 6862141.201 77.851
647384.738 6862141.543 77.950
647384.744 6862141.886 78.161
647384.749 6862142.228 78.698
647384.755 6862142.571 79.427
647384.760 6862142.913 79.772
647384.765 6862143.256 79.970
647384.771 6862143.598 80.117
647384.776 6862143.941 80.234
647384.782 6862144.283 80.334
647384.787 6862144.626 80.421
647384.792 6862144.968 80.518
647384.798 6862145.311 80.618
647384.803 6862145.653 80.684
647384.808 6862145.996 80.722
647384.814 6862146.338 80.735
647384.841 6862148.051 79.937
647384.846 6862148.393 79.832
647384.835 6862147.708 80.116
647384.830 6862147.366 80.392
647384.857 6862149.078 79.672
647384.851 6862148.736 79.744
647384.862 6862149.421 79.618
647384.868 6862149.763 79.588
647384.825 6862147.023 80.629
647384.873 6862150.106 79.624
647384.878 6862150.448 79.669
647384.884 6862150.791 80.784
647384.819 6862146.681 80.712
647384.889 6862151.133 81.204
647384.895 6862151.476 80.620
647384.900 6862151.818 79.470
647384.905 6862152.161 79.458
647384.911 6862152.503 78.805
647384.916 6862152.846 78.439
647384.921 6862153.188 78.207
647384.353 6862138.809 77.068
647384.358 6862139.151 77.626
647384.364 6862139.494 77.791
647384.369 6862139.836 77.852
647384.374 6862140.179 77.870
647384.380 6862140.521 77.900
647384.385 6862140.864 77.888
647384.391 6862141.206 78.003
647384.396 6862141.549 78.258
647384.401 6862141.891 79.081
647384.407 6862142.234 79.622
647384.412 6862142.576 79.812
647384.418 6862142.919 79.975
647384.423 6862143.261 80.114
647384.428 6862143.604 80.224
647384.434 6862143.946 80.327
647384.439 6862144.289 80.416
647384.444 6862144.631 80.499
647384.450 6862144.974 80.602
647384.455 6862145.316 80.692
647384.461 6862145.659 80.758
647384.466 6862146.001 80.795
647384.471 6862146.344 80.806
647384.477 6862146.686 80.793
647384.482 6862147.029 80.746
647384.487 6862147.371 80.609
647384.493 6862147.714 80.387
647384.498 6862148.056 80.186
647384.504 6862148.399 80.049
647384.509 6862148.741 79.912
647384.514 6862149.084 79.837
647384.520 6862149.426 79.853
647384.525 6862149.769 79.962
647384.531 6862150.111 80.492
647384.536 6862150.454 81.022
647384.541 6862150.796 81.396
647384.547 6862151.139 81.349
647384.563 6862152.166 80.146
647384.579 6862153.194 78.266
647384.584 6862153.536 78.053
647384.574 6862152.851 78.786
647384.552 6862151.481 80.949
647384.557 6862151.824 80.164
647384.568 6862152.509 79.847
647384.010 6862138.814 77.490
647384.016 6862139.157 77.810
647384.005 6862138.472 76.694
647384.021 6862139.499 77.907
647384.027 6862139.842 77.955
647384.032 6862140.184 78.034
647384.037 6862140.527 78.160
647384.048 6862141.212 78.876
647384.054 6862141.554 79.538
647384.059 6862141.897 79.822
647384.043 6862140.869 78.405
647384.064 6862142.239 79.978
647384.070 6862142.582 80.063
647384.075 6862142.924 80.139
647384.080 6862143.267 80.227
647384.086 6862143.609 80.319
647384.091 6862143.952 80.404
647384.097 6862144.294 80.476
647384.102 6862144.637 80.562
647384.113 6862145.322 80.739
647384.107 6862144.979 80.657
647384.118 6862145.664 80.804
647384.140 6862147.034 80.842
647384.123 6862146.007 80.845
647384.150 6862147.719 80.603
647384.129 6862146.349 80.863
647384.145 6862147.377 80.766
647384.134 6862146.692 80.866
647384.156 6862148.061 80.382
647384.172 6862149.089 80.097
647384.177 6862149.431 80.222
647384.161 6862148.404 80.230
647384.166 6862148.746 80.129
647384.188 6862150.116 81.146
647384.183 6862149.774 80.612
647384.204 6862151.144 81.276
647384.193 6862150.459 81.429
647384.220 6862152.171 80.085
647384.215 6862151.829 80.238
647384.199 6862150.801 81.507
647384.210 6862151.486 80.864
647384.231 6862152.856 79.453
647384.226 6862152.514 79.952
647384.247 6862153.884 78.059
647384.236 6862153.199 78.328
647384.242 6862153.541 78.138
647383.657 6862138.135 76.323
647383.663 6862138.477 77.599
647383.668 6862138.820 77.783
647383.673 6862139.162 77.894
647383.679 6862139.505 78.012
647383.684 6862139.847 78.050
647383.689 6862140.190 78.671
647383.695 6862140.532 80.103
647383.700 6862140.874 80.396
647383.706 6862141.217 80.163
647383.711 6862141.559 80.042
647383.716 6862141.902 80.066
647383.722 6862142.244 80.137
647383.727 6862142.587 80.191
647383.754 6862144.299 80.552
647383.749 6862143.957 80.489
647383.743 6862143.614 80.410
647383.759 6862144.642 80.632
647383.738 6862143.272 80.325
647383.765 6862144.984 80.713
647383.770 6862145.327 80.786
647383.776 6862145.669 80.853
647383.781 6862146.012 80.900
647383.792 6862146.697 80.925
647383.786 6862146.354 80.921
647383.797 6862147.039 80.913
647383.802 6862147.382 80.860
647383.813 6862148.067 80.592
647383.808 6862147.724 80.760
647383.819 6862148.409 80.478
647383.824 6862148.752 80.451
647383.733 6862142.929 80.254
647383.829 6862149.094 80.566
647383.835 6862149.437 80.891
647383.840 6862149.779 81.188
647383.846 6862150.122 81.431
647383.851 6862150.464 81.512
647383.856 6862150.807 81.496
647383.862 6862151.149 81.163
647383.867 6862151.492 80.576
647383.872 6862151.834 80.162
647383.878 6862152.177 80.038
647383.883 6862152.519 79.872
647383.889 6862152.862 79.488
647383.894 6862153.204 78.470
647383.899 6862153.547 78.214
647383.905 6862153.889 78.086
647383.910 6862154.232 78.021
647383.309 6862137.797 75.074
647383.315 6862138.140 77.013
647383.320 6862138.482 77.387
647383.325 6862138.825 77.733
647383.331 6862139.167 77.944
647383.336 6862139.510 78.102
647383.342 6862139.852 78.168
647383.347 6862140.195 79.964
647383.352 6862140.537 81.177
647383.358 6862140.880 81.469
647383.363 6862141.222 80.996
647383.369 6862141.565 80.511
647383.374 6862141.907 80.198
647383.379 6862142.250 80.249
647383.385 6862142.592 80.291
647383.390 6862142.935 80.349
647383.395 6862143.277 80.420
647383.401 6862143.620 80.509
647383.406 6862143.962 80.593
647383.412 6862144.305 80.656
647383.417 6862144.647 80.730
647383.422 6862144.990 80.799
647383.428 6862145.332 80.870
647383.433 6862145.675 80.924
647383.438 6862146.017 80.963
647383.444 6862146.360 80.980
647383.449 6862146.702 80.977
647383.455 6862147.045 80.975
647383.481 6862148.757 80.790
647383.487 6862149.100 80.923
647383.492 6862149.442 81.133
647383.460 6862147.387 80.927
647383.471 6862148.072 80.798
647383.498 6862149.785 81.316
647383.503 6862150.127 81.435
647383.508 6862150.470 81.471
647383.465 6862147.730 80.866
647383.514 6862150.812 81.414
647383.525 6862151.497 80.406
647383.519 6862151.155 81.069
647383.530 6862151.840 80.154
647383.535 6862152.182 80.023
647383.541 6862152.525 79.894
647383.476 6862148.415 80.755
647383.546 6862152.867 79.597
647383.551 6862153.210 78.736
647383.557 6862153.552 78.225
647383.562 6862153.895 78.097
647383.568 6862154.237 78.068
647383.573 6862154.580 78.053
647382.967 6862137.803 75.437
647382.961 6862137.460 74.364
647382.972 6862138.145 77.136
647382.983 6862138.830 77.788
647382.978 6862138.488 77.591
647382.988 6862139.173 77.970
647382.994 6862139.515 78.179
647382.999 6862139.858 78.328
647383.005 6862140.200 80.305
647383.010 6862140.543 81.397
647383.015 6862140.885 81.720
647383.021 6862141.228 81.661
647383.026 6862141.570 81.049
647383.031 6862141.913 80.528
647383.037 6862142.255 80.387
647383.042 6862142.598 80.469
647383.048 6862142.940 80.506
647383.053 6862143.283 80.571
647383.058 6862143.625 80.646
647383.064 6862143.968 80.715
647383.069 6862144.310 80.767
647383.074 6862144.653 80.825
647383.080 6862144.995 80.887
647383.085 6862145.338 80.947
647383.091 6862145.680 80.989
647383.096 6862146.023 81.016
647383.101 6862146.365 81.026
647383.107 6862146.708 81.033
647383.112 6862147.050 81.026
647383.117 6862147.393 80.981
647383.123 6862147.735 80.940
647383.128 6862148.078 80.911
647383.134 6862148.420 80.908
647383.139 6862148.763 80.941
647383.144 6862149.105 81.014
647383.150 6862149.448 81.140
647383.155 6862149.790 81.234
647383.161 6862150.133 81.322
647383.177 6862151.160 80.901
647383.166 6862150.475 81.362
647383.193 6862152.188 79.999
647383.198 6862152.530 79.854
647383.187 6862151.845 80.158
647383.204 6862152.873 79.629
647383.171 6862150.818 81.278
647383.209 6862153.215 78.935
647383.214 6862153.558 78.309
647383.220 6862153.900 78.180
647383.182 6862151.503 80.373
647383.225 6862154.243 78.121
647383.230 6862154.585 78.105
647383.236 6862154.928 78.087
647382.619 6862137.466 74.990
647382.624 6862137.808 75.707
647382.646 6862139.178 77.912
647382.651 6862139.521 78.114
647382.657 6862139.863 78.725
647382.640 6862138.836 77.735
647382.662 6862140.206 79.923
647382.667 6862140.548 81.120
647382.673 6862140.891 81.616
647382.678 6862141.233 81.723
647382.684 6862141.576 81.515
647382.689 6862141.918 81.100
647382.694 6862142.261 80.777
647382.700 6862142.603 80.699
647382.710 6862143.288 80.745
647382.716 6862143.631 80.786
647382.721 6862143.973 80.831
647382.705 6862142.946 80.716
647382.732 6862144.658 80.921
647382.727 6862144.316 80.874
647382.737 6862145.001 80.965
647382.743 6862145.343 81.014
647382.635 6862138.493 77.451
647382.630 6862138.151 77.167
647382.753 6862146.028 81.071
647382.759 6862146.371 81.085
647382.748 6862145.686 81.051
647382.764 6862146.713 81.080
647382.780 6862147.741 80.990
647382.770 6862147.056 81.059
647382.786 6862148.083 80.969
647382.797 6862148.768 80.983
647382.802 6862149.111 81.044
647382.775 6862147.398 81.025
647382.818 6862150.138 81.153
647382.813 6862149.795 81.153
647382.791 6862148.426 80.966
647382.807 6862149.453 81.108
647382.823 6862150.480 81.111
647382.845 6862151.850 80.067
647382.829 6862150.823 80.882
647382.850 6862152.193 79.946
647382.861 6862152.878 79.648
647382.834 6862151.165 80.474
647382.856 6862152.535 79.834
647382.840 6862151.508 80.235
647382.883 6862154.248 78.198
647382.893 6862154.933 78.116
647382.866 6862153.220 79.138
647382.899 6862155.275 78.067
647382.872 6862153.563 78.523
647382.877 6862153.905 78.307
647382.888 6862154.590 78.129
647382.904 6862155.618 78.033
647382.271 6862137.129 74.179
647382.276 6862137.471 75.153
647382.282 6862137.814 76.102
647382.287 6862138.156 77.146
647382.293 6862138.499 77.561
647382.298 6862138.841 77.761
647382.303 6862139.184 77.902
647382.309 6862139.526 78.077
647382.314 6862139.869 78.540
647382.320 6862140.211 79.644
647382.325 6862140.554 80.423
647382.330 6862140.896 81.357
647382.336 6862141.239 81.636
647382.341 6862141.581 81.644
647382.346 6862141.923 81.459
647382.352 6862142.266 81.231
647382.357 6862142.608 81.153
647382.363 6862142.951 81.079
647382.368 6862143.293 81.008
647382.389 6862144.663 81.022
647382.400 6862145.348 81.081
647382.395 6862145.006 81.050
647382.406 6862145.691 81.112
647382.384 6862144.321 80.991
647382.411 6862146.033 81.139
647382.416 6862146.376 81.138
647382.438 6862147.746 81.022
647382.422 6862146.718 81.115
647382.427 6862147.061 81.081
647382.443 6862148.088 81.006
647382.432 6862147.403 81.047
647382.379 6862143.978 80.965
647382.449 6862148.431 81.002
647382.459 6862149.116 81.040
647382.373 6862143.636 80.959
647382.465 6862149.458 81.069
647382.470 6862149.801 81.062
647382.454 6862148.773 81.014
647382.476 6862150.143 80.996
647382.481 6862150.486 80.842
647382.486 6862150.828 80.598
647382.492 6862151.171 80.358
647382.497 6862151.513 80.195
647382.502 6862151.856 80.065
647382.508 6862152.198 79.951
647382.513 6862152.541 79.819
647382.519 6862152.883 79.602
647382.524 6862153.226 79.172
647382.529 6862153.568 78.648
647382.535 6862153.911 78.430
647382.540 6862154.253 78.301
647382.551 6862154.938 78.182
647382.556 6862155.281 78.163
647382.562 6862155.623 78.140
647382.545 6862154.596 78.223
647382.567 6862155.966 77.975
647381.923 6862136.791 74.638
647381.929 6862137.134 75.160
647381.934 6862137.476 76.077
647381.939 6862137.819 76.962
647381.945 6862138.161 77.406
647381.950 6862138.504 77.656
647381.956 6862138.846 77.823
647381.961 6862139.189 77.982
647381.966 6862139.531 78.226
647381.972 6862139.874 79.043
647381.977 6862140.216 79.815
647381.982 6862140.559 80.399
647381.988 6862140.901 80.947
647381.993 6862141.244 81.366
647381.999 6862141.586 81.528
647382.004 6862141.929 81.531
647382.009 6862142.271 81.459
647382.031 6862143.641 81.081
647382.036 6862143.984 81.061
647382.025 6862143.299 81.146
647382.020 6862142.956 81.264
647382.042 6862144.326 81.078
647382.047 6862144.669 81.098
647382.052 6862145.011 81.114
647382.015 6862142.614 81.371
647382.063 6862145.696 81.153
647382.058 6862145.354 81.131
647382.068 6862146.039 81.173
647382.074 6862146.381 81.176
647382.079 6862146.724 81.147
647382.085 6862147.066 81.108
647382.090 6862147.409 81.072
647382.101 6862148.094 81.027
647382.095 6862147.751 81.041
647382.106 6862148.436 81.027
647382.112 6862148.779 81.032
647382.117 6862149.121 81.044
647382.122 6862149.464 81.043
647382.128 6862149.806 81.014
647382.133 6862150.149 80.929
647382.138 6862150.491 80.780
647382.144 6862150.834 80.585
647382.149 6862151.176 80.378
647382.155 6862151.519 80.239
647382.160 6862151.861 80.114
647382.165 6862152.204 79.981
647382.171 6862152.546 79.823
647382.176 6862152.889 79.584
647382.181 6862153.231 79.215
647382.187 6862153.574 78.806
647382.192 6862153.916 78.538
647382.198 6862154.259 78.441
647382.203 6862154.601 78.406
647382.208 6862154.944 78.402
647382.214 6862155.286 78.341
647382.219 6862155.629 78.272
647382.225 6862155.971 78.048
647382.230 6862156.314 77.166
647381.575 6862136.454 74.223
647381.581 6862136.797 75.140
647381.586 6862137.139 75.953
647381.591 6862137.482 77.006
647381.597 6862137.824 77.391
647381.602 6862138.167 77.609
647381.608 6862138.509 77.809
647381.635 6862140.222 80.068
647381.640 6862140.564 80.463
647381.645 6862140.907 80.855
647381.613 6862138.852 77.968
647381.651 6862141.249 81.219
647381.656 6862141.592 81.406
647381.661 6862141.934 81.476
647381.624 6862139.537 78.876
647381.667 6862142.277 81.456
647381.678 6862142.962 81.264
647381.629 6862139.879 79.559
647381.672 6862142.619 81.389
647381.618 6862139.194 78.178
647381.683 6862143.304 81.177
647381.699 6862144.332 81.113
647381.694 6862143.989 81.113
647381.688 6862143.647 81.130
647381.704 6862144.674 81.119
647381.710 6862145.017 81.135
647381.715 6862145.359 81.149
647381.721 6862145.702 81.162
647381.726 6862146.044 81.174
647381.731 6862146.387 81.182
647381.737 6862146.729 81.172
647381.742 6862147.072 81.134
647381.748 6862147.414 81.091
647381.753 6862147.757 81.051
647381.758 6862148.099 81.029
647381.764 6862148.442 81.021
647381.769 6862148.784 81.024
647381.774 6862149.127 81.022
647381.780 6862149.469 81.009
647381.785 6862149.812 80.974
647381.791 6862150.154 80.913
647381.796 6862150.497 80.780
647381.801 6862150.839 80.607
647381.807 6862151.182 80.448
647381.812 6862151.524 80.304
647381.817 6862151.867 80.184
647381.823 6862152.209 80.027
647381.828 6862152.552 79.820
647381.834 6862152.894 79.563
647381.839 6862153.237 79.259
647381.850 6862153.922 78.822
647381.855 6862154.264 78.766
647381.844 6862153.579 78.994
647381.860 6862154.607 78.797
647381.866 6862154.949 78.799
647381.871 6862155.292 78.691
647381.882 6862155.977 78.306
647381.877 6862155.634 78.621
647381.893 6862156.662 77.638
647381.887 6862156.319 78.110
647381.227 6862136.117 73.879
647381.233 6862136.460 74.986
647381.238 6862136.802 75.499
647381.249 6862137.487 77.409
647381.254 6862137.830 77.592
647381.260 6862138.172 77.802
647381.244 6862137.145 76.869
647381.265 6862138.515 77.985
647381.271 6862138.857 78.236
647381.287 6862139.885 79.878
647381.292 6862140.227 80.194
647381.276 6862139.200 78.931
647381.281 6862139.542 79.494
647381.303 6862140.912 80.681
647381.308 6862141.255 81.025
647381.324 6862142.282 81.348
647381.314 6862141.597 81.208
647381.297 6862140.570 80.459
647381.330 6862142.625 81.307
647381.335 6862142.967 81.235
647381.340 6862143.310 81.193
647381.346 6862143.652 81.156
647381.319 6862141.940 81.325
647381.357 6862144.337 81.115
647381.362 6862144.680 81.117
647381.351 6862143.995 81.125
647381.367 6862145.022 81.135
647381.373 6862145.365 81.152
647381.378 6862145.707 81.165
647381.383 6862146.050 81.171
647381.389 6862146.392 81.174
647381.405 6862147.420 81.096
647381.394 6862146.735 81.166
647381.400 6862147.077 81.137
647381.416 6862148.105 81.021
647381.410 6862147.762 81.055
647381.432 6862149.132 81.004
647381.421 6862148.447 81.009
647381.427 6862148.790 81.006
647381.448 6862150.160 80.908
647381.437 6862149.475 80.987
647381.453 6862150.502 80.810
647381.443 6862149.817 80.959
647381.459 6862150.844 80.681
647381.475 6862151.872 80.260
647381.464 6862151.187 80.534
647381.480 6862152.214 80.095
647381.470 6862151.529 80.391
647381.486 6862152.557 79.880
647381.491 6862152.899 79.620
647381.502 6862153.584 79.215
647381.507 6862153.927 79.127
647381.523 6862154.954 79.113
647381.518 6862154.612 79.129
647381.529 6862155.297 79.007
647381.534 6862155.639 78.832
647381.540 6862155.982 78.746
647381.545 6862156.324 78.608
647381.550 6862156.667 78.495
647381.496 6862153.242 79.377
647381.513 6862154.269 79.107
647380.896 6862136.808 76.474
647380.901 6862137.150 77.310
647380.885 6862136.123 75.057
647380.906 6862137.493 77.564
647380.880 6862135.780 73.928
647380.912 6862137.835 77.746
647380.917 6862138.178 77.982
647380.923 6862138.520 78.295
647380.928 6862138.863 79.032
647380.890 6862136.465 75.401
647380.933 6862139.205 79.558
647380.939 6862139.548 79.844
647380.944 6862139.890 80.099
647380.950 6862140.233 80.290
647380.955 6862140.575 80.469
647380.960 6862140.918 80.652
647380.966 6862141.260 80.855
647380.971 6862141.603 81.089
647380.976 6862141.945 81.190
647380.982 6862142.288 81.243
647380.987 6862142.630 81.227
647380.993 6862142.973 81.216
647380.998 6862143.315 81.188
647381.003 6862143.657 81.145
647381.009 6862144.000 81.112
647381.014 6862144.342 81.099
647381.019 6862144.685 81.096
647381.025 6862145.027 81.114
647381.030 6862145.370 81.136
647381.036 6862145.712 81.155
647381.041 6862146.055 81.162
647381.046 6862146.397 81.152
647381.052 6862146.740 81.136
647381.057 6862147.082 81.109
647381.063 6862147.425 81.072
647381.068 6862147.767 81.031
647381.073 6862148.110 81.002
647381.079 6862148.452 80.991
647381.084 6862148.795 80.988
647381.089 6862149.137 80.989
647381.095 6862149.480 80.978
647381.100 6862149.822 80.956
647381.106 6862150.165 80.919
647381.111 6862150.507 80.846
647381.116 6862150.850 80.755
647381.122 6862151.192 80.631
647381.138 6862152.220 80.252
647381.143 6862152.562 80.064
647381.154 6862153.247 79.512
647381.127 6862151.535 80.487
647381.159 6862153.590 79.397
647381.149 6862152.905 79.713
647381.165 6862153.932 79.351
647381.170 6862154.275 79.336
647381.176 6862154.617 79.354
647381.181 6862154.960 79.316
647381.186 6862155.302 79.194
647381.192 6862155.645 79.054
647381.197 6862155.987 78.892
647381.132 6862151.877 80.362
647381.208 6862156.672 78.840
647381.202 6862156.330 78.896
647380.532 6862135.443 74.456
647380.537 6862135.786 75.039
647380.564 6862137.498 77.760
647380.569 6862137.840 77.955
647380.542 6862136.128 75.798
647380.575 6862138.183 78.287
647380.580 6862138.525 78.981
647380.586 6862138.868 79.556
647380.596 6862139.553 80.069
647380.591 6862139.210 79.858
647380.602 6862139.895 80.226
647380.548 6862136.470 76.849
647380.607 6862140.238 80.375
647380.612 6862140.580 80.524
647380.618 6862140.923 80.703
647380.553 6862136.813 77.365
647380.623 6862141.265 80.859
647380.629 6862141.608 81.022
647380.634 6862141.950 81.114
647380.639 6862142.293 81.164
647380.645 6862142.635 81.188
647380.559 6862137.155 77.578
647380.650 6862142.978 81.191
647380.655 6862143.320 81.165
647380.661 6862143.663 81.125
647380.666 6862144.005 81.081
647380.672 6862144.348 81.066
647380.677 6862144.690 81.053
647380.682 6862145.033 81.057
647380.688 6862145.375 81.077
647380.693 6862145.718 81.099
647380.699 6862146.060 81.109
647380.704 6862146.403 81.106
647380.709 6862146.745 81.093
647380.715 6862147.088 81.061
647380.720 6862147.430 81.022
647380.725 6862147.773 80.986
647380.731 6862148.115 80.956
647380.736 6862148.458 80.944
647380.742 6862148.800 80.949
647380.747 6862149.143 80.959
647380.752 6862149.485 80.960
647380.758 6862149.828 80.954
647380.763 6862150.170 80.926
647380.768 6862150.513 80.884
647380.774 6862150.855 80.830
647380.779 6862151.198 80.762
647380.785 6862151.540 80.674
647380.790 6862151.883 80.575
647380.795 6862152.225 80.447
647380.801 6862152.568 80.262
647380.806 6862152.910 80.000
647380.811 6862153.253 79.698
647380.817 6862153.595 79.593
647380.844 6862155.308 79.255
647380.822 6862153.938 79.524
647380.849 6862155.650 79.160
647380.855 6862155.993 78.937
647380.865 6862156.678 78.900
647380.828 6862154.280 79.490
647380.860 6862156.335 78.872
647380.833 6862154.623 79.472
647380.838 6862154.965 79.399
647380.184 6862135.106 73.672
647380.189 6862135.448 75.012
647380.195 6862135.791 75.359
647380.200 6862136.133 76.602
647380.205 6862136.476 77.296
647380.211 6862136.818 77.562
647380.216 6862137.161 77.760
647380.221 6862137.503 77.976
647380.227 6862137.846 78.277
647380.232 6862138.188 78.959
647380.238 6862138.531 79.522
647380.243 6862138.873 79.814
647380.248 6862139.216 80.010
647380.254 6862139.558 80.170
647380.259 6862139.901 80.308
647380.265 6862140.243 80.452
647380.281 6862141.271 80.916
647380.297 6862142.298 81.130
647380.275 6862140.928 80.791
647380.302 6862142.641 81.169
647380.270 6862140.586 80.626
647380.308 6862142.983 81.179
647380.286 6862141.613 81.004
647380.313 6862143.326 81.170
647380.318 6862143.668 81.139
647380.324 6862144.011 81.078
647380.334 6862144.696 80.984
647380.329 6862144.353 81.019
647380.345 6862145.381 80.974
647380.340 6862145.038 80.967
647380.351 6862145.723 81.009
647380.356 6862146.066 81.031
647380.291 6862141.956 81.075
647380.361 6862146.408 81.040
647380.367 6862146.751 81.040
647380.372 6862147.093 81.002
647380.378 6862147.436 80.946
647380.383 6862147.778 80.899
647380.388 6862148.121 80.876
647380.394 6862148.463 80.873
647380.399 6862148.806 80.885
647380.404 6862149.148 80.906
647380.410 6862149.491 80.927
647380.415 6862149.833 80.932
647380.421 6862150.176 80.923
647380.426 6862150.518 80.906
647380.431 6862150.861 80.884
647380.437 6862151.203 80.857
647380.442 6862151.546 80.830
647380.447 6862151.888 80.788
647380.453 6862152.231 80.702
647380.458 6862152.573 80.483
647380.464 6862152.916 80.242
647380.469 6862153.258 79.971
647380.474 6862153.601 79.807
647380.480 6862153.943 79.719
647380.485 6862154.286 79.642
647380.491 6862154.628 79.549
647380.496 6862154.971 79.444
647380.501 6862155.313 79.326
647380.507 6862155.656 79.226
647380.512 6862155.998 79.087
647380.517 6862156.341 79.095
647380.523 6862156.683 79.275
647379.841 6862135.111 74.907
647379.847 6862135.454 75.485
647379.836 6862134.769 73.665
647379.863 6862136.481 77.518
647379.852 6862135.796 76.790
647379.868 6862136.824 77.695
647379.874 6862137.166 77.950
647379.879 6862137.509 78.299
647379.857 6862136.139 77.220
647379.890 6862138.194 79.527
647379.884 6862137.851 78.930
647379.895 6862138.536 79.786
647379.917 6862139.906 80.403
647379.901 6862138.879 79.972
647379.922 6862140.249 80.590
647379.906 6862139.221 80.136
647379.911 6862139.564 80.268
647379.927 6862140.591 80.811
647379.933 6862140.934 80.899
647379.938 6862141.276 80.988
647379.954 6862142.304 81.129
647379.949 6862141.961 81.086
647379.960 6862142.646 81.161
647379.944 6862141.619 81.036
647379.970 6862143.331 81.179
647379.981 6862144.016 81.083
647379.965 6862142.989 81.180
647379.992 6862144.701 80.861
647380.003 6862145.386 80.873
647380.014 6862146.071 80.911
647380.019 6862146.414 80.954
647380.008 6862145.729 80.887
647380.024 6862146.756 80.956
647379.976 6862143.674 81.157
647380.030 6862147.099 80.927
647380.035 6862147.441 80.847
647380.040 6862147.784 80.792
647380.051 6862148.469 80.782
647380.057 6862148.811 80.811
647380.046 6862148.126 80.767
647380.062 6862149.154 80.850
647380.067 6862149.496 80.886
647380.078 6862150.181 80.926
647379.987 6862144.359 80.939
647380.073 6862149.839 80.912
647380.083 6862150.524 80.933
647379.997 6862145.044 80.852
647380.094 6862151.209 80.938
647380.100 6862151.551 80.947
647380.105 6862151.894 80.951
647380.089 6862150.866 80.939
647380.116 6862152.578 80.748
647380.121 6862152.921 80.543
647380.110 6862152.236 80.922
647380.132 6862153.606 80.077
647380.143 6862154.291 79.776
647380.127 6862153.263 80.291
647380.148 6862154.633 79.639
647380.137 6862153.948 79.924
647380.153 6862154.976 79.557
647380.159 6862155.318 79.417
647380.180 6862156.688 79.491
647380.164 6862155.661 79.369
647380.170 6862156.003 79.455
647380.175 6862156.346 79.779
647379.493 6862134.774 75.733
647379.488 6862134.432 75.610
647379.499 6862135.117 76.112
647379.504 6862135.459 76.985
647379.510 6862135.802 77.428
647379.515 6862136.144 77.584
647379.520 6862136.487 77.711
647379.526 6862136.829 77.894
647379.531 6862137.172 78.226
647379.537 6862137.514 78.867
647379.542 6862137.857 79.505
647379.547 6862138.199 79.811
647379.553 6862138.542 79.987
647379.558 6862138.884 80.129
647379.563 6862139.227 80.259
647379.569 6862139.569 80.407
647379.574 6862139.912 80.615
647379.580 6862140.254 80.807
647379.585 6862140.597 80.966
647379.590 6862140.939 81.048
647379.596 6862141.282 81.080
647379.601 6862141.624 81.111
647379.606 6862141.967 81.125
647379.612 6862142.309 81.152
647379.617 6862142.652 81.179
647379.623 6862142.994 81.207
647379.628 6862143.337 81.233
647379.633 6862143.679 81.241
647379.639 6862144.022 81.163
647379.644 6862144.364 80.908
647379.650 6862144.707 80.744
647379.655 6862145.049 80.703
647379.660 6862145.391 80.703
647379.666 6862145.734 80.729
647379.671 6862146.076 80.759
647379.676 6862146.419 80.813
647379.682 6862146.761 80.815
647379.687 6862147.104 80.768
647379.693 6862147.446 80.708
647379.725 6862149.501 80.828
647379.698 6862147.789 80.652
647379.730 6862149.844 80.880
647379.703 6862148.131 80.624
647379.736 6862150.186 80.918
647379.709 6862148.474 80.640
647379.741 6862150.529 80.951
647379.746 6862150.871 80.983
647379.752 6862151.214 81.024
647379.714 6862148.816 80.696
647379.757 6862151.556 81.050
647379.762 6862151.899 81.066
647379.768 6862152.241 81.071
647379.773 6862152.584 81.046
647379.719 6862149.159 80.761
647379.779 6862152.926 80.921
647379.784 6862153.269 80.689
647379.789 6862153.611 80.347
647379.795 6862153.954 80.078
647379.800 6862154.296 79.877
647379.806 6862154.639 79.748
647379.811 6862154.981 79.669
647379.816 6862155.324 79.625
647379.822 6862155.666 79.645
647379.827 6862156.009 80.411
647379.832 6862156.351 80.744
647379.838 6862156.694 79.914
647379.156 6862135.122 77.939
647379.151 6862134.780 77.966
647379.140 6862134.095 77.111
647379.162 6862135.465 77.708
647379.167 6862135.807 77.669
647379.146 6862134.437 77.902
647379.172 6862136.150 77.725
647379.178 6862136.492 77.898
647379.183 6862136.835 78.274
647379.194 6862137.520 79.551
647379.189 6862137.177 79.042
647379.199 6862137.862 79.819
647379.205 6862138.204 79.993
647379.216 6862138.889 80.250
647379.210 6862138.547 80.132
647379.221 6862139.232 80.379
647379.226 6862139.574 80.558
647379.232 6862139.917 80.785
647379.237 6862140.259 80.946
647379.242 6862140.602 81.074
647379.248 6862140.944 81.117
647379.253 6862141.287 81.128
647379.259 6862141.629 81.144
647379.264 6862141.972 81.146
647379.269 6862142.314 81.160
647379.275 6862142.657 81.199
647379.280 6862142.999 81.247
647379.285 6862143.342 81.323
647379.291 6862143.684 81.375
647379.296 6862144.027 81.292
647379.302 6862144.369 81.071
647379.307 6862144.712 80.727
647379.312 6862145.054 80.531
647379.318 6862145.397 80.509
647379.323 6862145.739 80.569
647379.329 6862146.082 80.620
647379.334 6862146.424 80.644
647379.339 6862146.767 80.641
647379.345 6862147.109 80.619
647379.350 6862147.452 80.553
647379.361 6862148.137 80.489
647379.366 6862148.479 80.501
647379.372 6862148.822 80.543
647379.377 6862149.164 80.632
647379.382 6862149.507 80.733
647379.388 6862149.849 80.826
647379.393 6862150.192 80.896
647379.398 6862150.534 80.955
647379.404 6862150.877 81.026
647379.409 6862151.219 81.082
647379.415 6862151.562 81.121
647379.442 6862153.274 80.940
647379.420 6862151.904 81.169
647379.425 6862152.247 81.202
647379.447 6862153.617 80.576
647379.452 6862153.959 80.263
647379.458 6862154.302 80.023
647379.431 6862152.589 81.201
647379.463 6862154.644 79.856
647379.436 6862152.932 81.125
647379.468 6862154.987 79.754
647379.474 6862155.329 79.865
647379.479 6862155.672 80.163
647379.490 6862156.357 80.808
647379.495 6862156.699 80.393
647379.485 6862156.014 80.760
647378.792 6862133.757 77.616
647378.803 6862134.442 79.132
647378.808 6862134.785 79.540
647378.814 6862135.127 79.566
647378.798 6862134.100 78.735
647378.819 6862135.470 79.123
647378.825 6862135.812 78.106
647378.830 6862136.155 77.938
647378.835 6862136.497 78.299
647378.841 6862136.840 79.373
647378.846 6862137.182 79.696
647378.852 6862137.525 79.901
647378.873 6862138.895 80.366
647378.857 6862137.867 80.050
647378.878 6862139.237 80.497
647378.884 6862139.580 80.677
647378.862 6862138.210 80.159
647378.889 6862139.922 80.869
647378.895 6862140.265 81.007
647378.900 6862140.607 81.113
647378.905 6862140.950 81.145
647378.911 6862141.292 81.150
647378.916 6862141.635 81.158
647378.921 6862141.977 81.142
647378.927 6862142.320 81.141
647378.868 6862138.552 80.255
647378.932 6862142.662 81.185
647378.938 6862143.005 81.254
647378.943 6862143.347 81.350
647378.948 6862143.690 81.481
647378.954 6862144.032 81.498
647378.959 6862144.375 81.316
647378.965 6862144.717 80.881
647378.970 6862145.060 80.577
647378.975 6862145.402 80.401
647378.981 6862145.745 80.370
647378.986 6862146.087 80.407
647378.991 6862146.430 80.426
647378.997 6862146.772 80.447
647379.002 6862147.115 80.444
647379.024 6862148.485 80.401
647379.029 6862148.827 80.447
647379.034 6862149.170 80.530
647379.040 6862149.512 80.627
647379.045 6862149.855 80.751
647379.051 6862150.197 80.864
647379.056 6862150.540 80.945
647379.061 6862150.882 81.038
647379.067 6862151.225 81.117
647379.072 6862151.567 81.172
647379.078 6862151.910 81.220
647379.083 6862152.252 81.254
647379.088 6862152.595 81.259
647379.094 6862152.937 81.225
647379.099 6862153.280 81.140
647379.104 6862153.622 80.862
647379.110 6862153.965 80.575
647379.115 6862154.307 80.357
647379.121 6862154.650 80.215
647379.126 6862154.992 80.219
647379.131 6862155.335 80.252
647379.147 6862156.362 80.638
647379.142 6862156.020 80.810
647379.153 6862156.705 80.347
647379.137 6862155.677 80.598
647378.444 6862133.420 76.500
647378.450 6862133.763 78.563
647378.455 6862134.105 78.974
647378.461 6862134.448 79.603
647378.466 6862134.790 80.639
647378.471 6862135.133 81.197
647378.477 6862135.475 80.905
647378.482 6862135.818 79.895
647378.488 6862136.160 79.454
647378.493 6862136.503 79.632
647378.498 6862136.845 79.869
647378.504 6862137.188 79.996
647378.509 6862137.530 80.106
647378.514 6862137.873 80.206
647378.541 6862139.585 80.772
647378.520 6862138.215 80.284
647378.547 6862139.928 80.920
647378.552 6862140.270 81.042
647378.557 6862140.613 81.128
647378.525 6862138.558 80.369
647378.531 6862138.900 80.488
647378.563 6862140.955 81.156
647378.568 6862141.298 81.159
647378.579 6862141.983 81.110
647378.574 6862141.640 81.139
647378.584 6862142.325 81.099
647378.590 6862142.668 81.124
647378.595 6862143.010 81.188
647378.536 6862139.243 80.630
647378.600 6862143.353 81.277
647378.606 6862143.695 81.399
647378.611 6862144.038 81.485
647378.617 6862144.380 81.472
647378.622 6862144.723 81.126
647378.627 6862145.065 80.501
647378.633 6862145.408 80.395
647378.638 6862145.750 80.212
647378.644 6862146.093 80.160
647378.649 6862146.435 80.179
647378.654 6862146.778 80.199
647378.703 6862149.860 80.669
647378.687 6862148.833 80.376
647378.692 6862149.175 80.466
647378.697 6862149.518 80.549
647378.708 6862150.203 80.831
647378.719 6862150.888 81.037
647378.724 6862151.230 81.116
647378.730 6862151.573 81.181
647378.713 6862150.545 80.934
647378.740 6862152.258 81.283
647378.735 6862151.915 81.232
647378.746 6862152.600 81.317
647378.751 6862152.943 81.318
647378.762 6862153.627 81.103
647378.767 6862153.970 80.917
647378.773 6862154.312 80.814
647378.757 6862153.285 81.284
647378.783 6862154.997 80.692
647378.778 6862154.655 80.731
647378.789 6862155.340 80.715
647378.794 6862155.682 80.774
647378.800 6862156.025 80.655
647378.805 6862156.367 80.467
647378.097 6862133.083 75.580
647378.113 6862134.111 79.050
647378.118 6862134.453 79.329
647378.810 6862156.710 80.187
647378.123 6862134.796 80.189
647378.102 6862133.426 77.913
647378.129 6862135.138 81.293
647378.107 6862133.768 78.668
647378.140 6862135.823 81.326
647378.145 6862136.166 80.974
647378.150 6862136.508 80.446
647378.156 6862136.851 80.205
647378.134 6862135.481 81.480
647378.161 6862137.193 80.200
647378.167 6862137.536 80.261
647378.177 6862138.221 80.400
647378.172 6862137.878 80.329
647378.183 6862138.563 80.490
647378.204 6862139.933 80.961
647378.188 6862138.906 80.601
647378.215 6862140.618 81.130
647378.210 6862140.276 81.060
647378.193 6862139.248 80.729
647378.220 6862140.961 81.152
647378.199 6862139.591 80.844
647378.226 6862141.303 81.148
647378.231 6862141.646 81.112
647378.247 6862142.673 81.017
647378.253 6862143.016 81.023
647378.258 6862143.358 81.111
647378.263 6862143.701 81.164
647378.236 6862141.988 81.069
647378.269 6862144.043 81.221
647378.274 6862144.386 81.323
647378.280 6862144.728 81.312
647378.285 6862145.071 80.802
647378.290 6862145.413 80.430
647378.301 6862146.098 79.738
647378.306 6862146.440 79.516
647378.296 6862145.756 80.049
647378.242 6862142.331 81.037
647378.366 6862150.208 80.751
647378.360 6862149.865 80.603
647378.339 6862148.495 80.253
647378.349 6862149.180 80.409
647378.344 6862148.838 80.305
647378.355 6862149.523 80.496
647378.371 6862150.550 80.906
647378.376 6862150.893 81.015
647378.382 6862151.235 81.107
647378.387 6862151.578 81.179
647378.393 6862151.920 81.243
647378.398 6862152.263 81.311
647378.403 6862152.605 81.366
647378.409 6862152.948 81.399
647378.414 6862153.290 81.399
647378.419 6862153.633 81.323
647378.425 6862153.975 81.234
647378.430 6862154.318 81.148
647378.436 6862154.660 81.050
647378.441 6862155.003 80.959
647378.446 6862155.345 80.923
647378.452 6862155.688 80.760
647378.457 6862156.030 80.570
647378.462 6862156.373 80.394
647378.468 6862156.715 80.212
647377.749 6862132.746 75.575
647377.754 6862133.089 76.739
647377.765 6862133.774 78.679
647377.759 6862133.431 78.686
647377.770 6862134.116 79.006
647377.776 6862134.459 79.212
647377.781 6862134.801 79.556
647377.786 6862135.144 80.920
647377.792 6862135.486 81.455
647377.797 6862135.829 81.575
647377.803 6862136.171 81.545
647377.808 6862136.514 81.236
647377.813 6862136.856 80.868
647377.819 6862137.199 80.438
647377.824 6862137.541 80.424
647377.829 6862137.884 80.469
647377.835 6862138.226 80.530
647377.840 6862138.569 80.606
647377.846 6862138.911 80.701
647377.851 6862139.253 80.801
647377.856 6862139.596 80.902
647377.862 6862139.938 80.994
647377.872 6862140.623 81.116
647377.867 6862140.281 81.068
647377.878 6862140.966 81.133
647377.883 6862141.308 81.117
647377.889 6862141.651 81.071
647377.894 6862141.993 81.020
647377.899 6862142.336 80.962
647377.905 6862142.678 80.902
647377.910 6862143.021 80.820
647377.916 6862143.363 80.712
647377.921 6862143.706 80.631
647377.926 6862144.048 80.609
647377.932 6862144.391 80.661
647377.937 6862144.733 80.904
647377.942 6862145.076 80.736
647377.948 6862145.418 80.294
647377.953 6862145.761 79.720
647377.959 6862146.103 78.922
647378.002 6862148.843 80.249
647378.007 6862149.186 80.340
647378.012 6862149.528 80.498
647378.018 6862149.871 80.567
647377.991 6862148.158 80.240
647378.023 6862150.213 80.723
647378.029 6862150.556 80.882
647378.034 6862150.898 80.992
647377.996 6862148.501 80.233
647378.039 6862151.241 81.082
647378.045 6862151.583 81.155
647378.050 6862151.926 81.228
647378.055 6862152.268 81.311
647378.061 6862152.611 81.396
647378.066 6862152.953 81.479
647378.072 6862153.296 81.522
647378.077 6862153.638 81.535
647378.082 6862153.981 81.499
647378.088 6862154.323 81.440
647378.093 6862154.666 81.297
647378.098 6862155.008 81.093
647378.104 6862155.351 80.946
647378.109 6862155.693 80.713
647378.115 6862156.036 80.544
647378.120 6862156.378 80.379
647378.125 6862156.721 80.252
647377.401 6862132.409 75.595
647377.406 6862132.751 77.790
647377.412 6862133.094 78.773
647377.417 6862133.436 78.938
647377.422 6862133.779 79.029
647377.449 6862135.491 81.137
647377.428 6862134.121 79.117
647377.455 6862135.834 81.535
647377.460 6862136.176 81.615
647377.465 6862136.519 81.514
647377.471 6862136.861 81.223
647377.476 6862137.204 81.028
647377.482 6862137.546 80.718
647377.487 6862137.889 80.644
647377.433 6862134.464 79.216
647377.498 6862138.574 80.747
647377.508 6862139.259 80.895
647377.492 6862138.231 80.680
647377.514 6862139.601 80.979
647377.503 6862138.916 80.817
647377.439 6862134.806 79.387
647377.519 6862139.944 81.036
647377.525 6862140.286 81.072
647377.444 6862135.149 79.882
647377.530 6862140.629 81.098
647377.535 6862140.971 81.104
647377.541 6862141.314 81.084
647377.551 6862141.999 80.978
647377.562 6862142.684 80.842
647377.568 6862143.026 80.726
647377.546 6862141.656 81.043
647377.578 6862143.711 80.304
647377.557 6862142.341 80.911
647377.584 6862144.054 80.142
647377.589 6862144.396 80.130
647377.573 6862143.369 80.538
647377.600 6862145.081 80.189
647377.595 6862144.739 80.245
647377.605 6862145.424 79.745
647377.611 6862145.766 79.057
647377.643 6862147.821 80.289
647377.648 6862148.164 80.299
647377.654 6862148.506 80.242
647377.659 6862148.849 80.250
647377.670 6862149.534 80.484
647377.675 6862149.876 80.616
647377.681 6862150.219 80.731
647377.664 6862149.191 80.337
647377.702 6862151.589 81.120
647377.713 6862152.274 81.297
647377.686 6862150.561 80.864
647377.718 6862152.616 81.426
647377.724 6862152.959 81.577
647377.745 6862154.329 81.613
647377.729 6862153.301 81.643
647377.751 6862154.671 81.377
647377.734 6862153.644 81.702
647377.756 6862155.014 81.105
647377.740 6862153.986 81.689
647377.761 6862155.356 80.924
647377.767 6862155.699 80.725
647377.772 6862156.041 80.580
647377.691 6862150.904 80.964
647377.777 6862156.384 80.423
647377.697 6862151.246 81.040
647377.783 6862156.726 80.292
647377.708 6862151.931 81.205
647377.058 6862132.414 77.453
647377.069 6862133.099 78.950
647377.080 6862133.784 79.083
647377.053 6862132.072 75.490
647377.091 6862134.469 79.234
647377.096 6862134.812 79.358
647377.107 6862135.497 80.385
647377.101 6862135.154 79.591
647377.074 6862133.442 79.021
647377.064 6862132.757 78.840
647377.123 6862136.524 81.628
647377.128 6862136.867 81.489
647377.134 6862137.209 81.289
647377.085 6862134.127 79.152
647377.144 6862137.894 80.950
647377.112 6862135.839 81.285
647377.155 6862138.579 80.908
647377.118 6862136.182 81.574
647377.166 6862139.264 81.008
647377.139 6862137.552 81.090
647377.150 6862138.237 80.897
647377.171 6862139.607 81.058
647377.161 6862138.922 80.957
647377.187 6862140.634 81.091
647377.177 6862139.949 81.080
647377.204 6862141.662 81.016
647377.209 6862142.004 80.949
647377.214 6862142.347 80.870
647377.182 6862140.292 81.086
647377.220 6862142.689 80.777
647377.193 6862140.977 81.079
647377.241 6862144.059 80.015
647377.198 6862141.319 81.056
647377.236 6862143.717 80.190
647377.231 6862143.374 80.441
647377.252 6862144.744 79.901
647377.263 6862145.429 79.205
647377.225 6862143.032 80.634
647377.295 6862147.484 79.832
647377.311 6862148.512 80.295
647377.300 6862147.827 80.428
647377.317 6862148.854 80.240
647377.322 6862149.197 80.386
647377.306 6862148.169 80.389
647377.327 6862149.539 80.510
647377.333 6862149.882 80.641
647377.338 6862150.224 80.767
647377.344 6862150.567 80.869
647377.349 6862150.909 80.940
647377.354 6862151.252 81.000
647377.360 6862151.594 81.083
647377.365 6862151.937 81.182
647377.247 6862144.402 79.942
647377.387 6862153.307 81.720
647377.392 6862153.649 81.773
647377.370 6862152.279 81.288
647377.381 6862152.964 81.603
647377.376 6862152.622 81.477
647377.257 6862145.087 79.643
647377.397 6862153.992 81.789
647377.408 6862154.677 81.304
647377.403 6862154.334 81.647
647377.413 6862155.019 81.067
647377.419 6862155.361 80.881
647377.424 6862155.704 80.707
647377.430 6862156.046 80.567
647377.435 6862156.389 80.451
647377.440 6862156.731 80.343
647376.705 6862131.735 76.118
647376.710 6862132.077 77.892
647376.716 6862132.420 78.775
647376.721 6862132.762 78.943
647376.727 6862133.105 79.008
647376.732 6862133.447 79.058
647376.737 6862133.790 79.110
647376.743 6862134.132 79.184
647376.748 6862134.475 79.270
647376.754 6862134.817 79.371
647376.759 6862135.160 79.508
647376.764 6862135.502 79.683
647376.770 6862135.845 80.317
647376.775 6862136.187 80.999
647376.780 6862136.530 81.487
647376.786 6862136.872 81.582
647376.791 6862137.215 81.490
647376.797 6862137.557 81.431
647376.802 6862137.900 81.355
647376.807 6862138.242 81.287
647376.813 6862138.585 81.223
647376.818 6862138.927 81.177
647376.840 6862140.297 81.107
647376.850 6862140.982 81.055
647376.845 6862140.640 81.086
647376.856 6862141.325 81.025
647376.834 6862139.955 81.125
647376.861 6862141.667 80.984
647376.829 6862139.612 81.136
647376.867 6862142.010 80.903
647376.872 6862142.352 80.809
647376.823 6862139.270 81.126
647376.877 6862142.695 80.701
647376.883 6862143.037 80.550
647376.888 6862143.380 80.360
647376.893 6862143.722 80.174
647376.899 6862144.065 80.038
647376.904 6862144.407 79.931
647376.910 6862144.750 79.839
647376.915 6862145.092 79.691
647376.947 6862147.147 78.371
647376.953 6862147.490 79.088
647376.958 6862147.832 79.901
647376.963 6862148.174 80.175
647376.969 6862148.517 80.335
647376.974 6862148.859 80.152
647376.979 6862149.202 80.451
647376.985 6862149.544 80.605
647376.990 6862149.887 80.706
647376.996 6862150.229 80.785
647377.001 6862150.572 80.865
647377.012 6862151.257 80.962
647377.006 6862150.914 80.910
647377.017 6862151.599 81.034
647377.023 6862151.942 81.133
647377.028 6862152.284 81.262
647377.033 6862152.627 81.470
647377.039 6862152.969 81.599
647377.044 6862153.312 81.769
647377.049 6862153.654 81.802
647377.055 6862153.997 81.756
647377.060 6862154.339 81.580
647377.066 6862154.682 81.215
647377.071 6862155.024 81.007
647377.087 6862156.052 80.573
647377.098 6862156.737 80.396
647377.092 6862156.394 80.484
647377.082 6862155.709 80.686
647377.076 6862155.367 80.827
647376.363 6862131.740 78.016
647376.368 6862132.083 78.631
647376.373 6862132.425 78.831
647376.379 6862132.768 78.940
647376.384 6862133.110 79.021
647376.390 6862133.453 79.089
647376.395 6862133.795 79.157
647376.400 6862134.138 79.235
647376.406 6862134.480 79.314
647376.411 6862134.823 79.398
647376.416 6862135.165 79.490
647376.422 6862135.508 79.587
647376.427 6862135.850 79.706
647376.433 6862136.193 79.983
647376.438 6862136.535 80.774
647376.443 6862136.878 81.326
647376.449 6862137.220 81.564
647376.454 6862137.563 81.615
647376.459 6862137.905 81.582
647376.465 6862138.248 81.497
647376.470 6862138.590 81.417
647376.476 6862138.933 81.379
647376.481 6862139.275 81.296
647376.486 6862139.618 81.219
647376.492 6862139.960 81.179
647376.497 6862140.303 81.135
647376.502 6862140.645 81.087
647376.513 6862141.330 80.997
647376.535 6862142.700 80.642
647376.540 6862143.042 80.494
647376.519 6862141.672 80.949
647376.546 6862143.385 80.311
647376.508 6862140.987 81.038
647376.551 6862143.727 80.141
647376.556 6862144.070 79.998
647376.562 6862144.412 79.902
647376.567 6862144.755 79.778
647376.572 6862145.097 79.437
647376.524 6862142.015 80.860
647376.529 6862142.357 80.756
647376.605 6862147.152 78.022
647376.610 6862147.495 78.786
647376.615 6862147.837 79.583
647376.621 6862148.180 80.049
647376.626 6862148.522 80.169
647376.632 6862148.865 80.154
647376.637 6862149.207 80.518
647376.642 6862149.550 80.615
647376.648 6862149.892 80.709
647376.653 6862150.235 80.780
647376.659 6862150.577 80.845
647376.664 6862150.920 80.879
647376.669 6862151.262 80.924
647376.675 6862151.605 80.995
647376.680 6862151.947 81.103
647376.685 6862152.290 81.260
647376.691 6862152.632 81.451
647376.696 6862152.975 81.592
647376.702 6862153.317 81.699
647376.707 6862153.660 81.771
647376.712 6862154.002 81.652
647376.718 6862154.345 81.441
647376.723 6862154.687 81.135
647376.728 6862155.030 80.959
647376.734 6862155.372 80.848
647376.739 6862155.715 80.735
647376.745 6862156.057 80.635
647376.750 6862156.400 80.543
647376.755 6862156.742 80.452
647376.015 6862131.403 76.202
647376.025 6862132.088 78.587
647376.031 6862132.431 78.776
647376.036 6862132.773 78.926
647376.042 6862133.116 79.038
647376.047 6862133.458 79.116
647376.020 6862131.746 77.939
647376.052 6862133.800 79.192
647376.058 6862134.143 79.264
647376.063 6862134.485 79.352
647376.069 6862134.828 79.438
647376.079 6862135.513 79.597
647376.085 6862135.855 79.672
647376.074 6862135.170 79.518
647376.090 6862136.198 79.765
647376.095 6862136.540 80.026
647376.101 6862136.883 80.810
647376.112 6862137.568 81.608
647376.122 6862138.253 81.667
647376.106 6862137.225 81.341
647376.128 6862138.595 81.595
647376.117 6862137.910 81.668
647376.133 6862138.938 81.492
647376.138 6862139.280 81.437
647376.144 6862139.623 81.358
647376.149 6862139.965 81.256
647376.160 6862140.650 81.095
647376.165 6862140.993 81.031
647376.171 6862141.335 80.975
647376.155 6862140.308 81.179
647376.182 6862142.020 80.812
647376.187 6862142.363 80.704
647376.192 6862142.705 80.598
647376.176 6862141.678 80.907
647376.198 6862143.048 80.447
647376.203 6862143.390 80.288
647376.214 6862144.075 79.984
647376.208 6862143.733 80.129
647376.219 6862144.418 79.866
647376.225 6862144.760 79.734
647376.262 6862147.158 78.076
647376.268 6862147.500 78.495
647376.273 6862147.843 79.296
647376.278 6862148.185 79.834
647376.284 6862148.528 80.348
647376.289 6862148.870 80.260
647376.294 6862149.213 80.550
647376.300 6862149.555 80.682
647376.305 6862149.898 80.731
647376.311 6862150.240 80.762
647376.316 6862150.583 80.806
647376.321 6862150.925 80.838
647376.327 6862151.268 80.884
