1417313.660 4188296.660 18.650
1417313.640 4188297.700 24.720
1417314.200 4188298.300 28.180
1417315.630 4188298.220 27.630
1417317.060 4188298.150 27.220
1417318.470 4188298.090 26.790
1417319.840 4188298.060 26.540
1417322.050 4188296.370 16.640
1417321.980 4188297.440 22.850
1417322.470 4188298.080 26.600
1417324.790 4188298.330 27.970
1417326.220 4188298.280 27.550
1417327.620 4188298.230 27.160
1417329.040 4188298.170 26.780
1417329.990 4188298.440 28.360
1417329.550 4188297.720 26.750
1417327.920 4188297.770 27.130
1417326.270 4188297.830 27.560
1417324.620 4188297.890 28.050
1417322.360 4188296.070 17.560
1417318.740 4188297.630 26.760
1417317.100 4188297.690 27.240
1417315.420 4188297.780 27.810
1417313.790 4188297.850 28.290
1417313.810 4188296.610 21.060
1417311.700 4188297.050 23.710
1417313.720 4188295.470 14.470
1417310.150 4188297.030 23.650
1417308.620 4188297.010 23.670
1417307.410 4188296.720 22.000
1417305.930 4188296.660 21.750
1417304.340 4188296.670 21.860
1417302.800 4188296.670 21.920
1417301.230 4188296.660 21.920
1417299.680 4188296.640 21.920
1417298.130 4188296.630 21.900
1417297.270 4188296.060 18.630
1417295.800 4188295.980 18.220
1417294.680 4188295.610 16.140
1417293.190 4188295.550 15.840
1417291.080 4188295.990 18.480
1417287.830 4188297.390 26.690
1417286.280 4188297.390 26.720
1417284.710 4188297.400 26.830
1417283.150 4188297.390 26.850
1417281.610 4188297.370 26.850
1417280.040 4188297.370 26.870
1417278.480 4188297.380 26.990
1417276.010 4188298.140 31.480
1417276.920 4188297.380 27.020
1417266.350 4188298.430 33.540
1417262.130 4188298.050 31.520
1417261.110 4188297.580 28.820
1417260.980 4188296.320 21.530
1417260.350 4188295.490 16.760
1417259.490 4188292.850 7.540
1417260.250 4188294.550 17.330
1417261.710 4188293.240 9.720
1417260.890 4188295.150 20.800
1417260.700 4188296.480 28.490
1417261.370 4188295.890 25.060
1417262.720 4188297.020 31.580
1417275.190 4188297.590 34.410
1417278.680 4188295.750 23.660
1417281.290 4188295.790 23.800
1417284.570 4188293.030 7.670
1417285.740 4188293.170 8.420
1417283.400 4188296.240 26.320
1417285.680 4188294.330 15.180
1417285.810 4188295.330 20.960
1417285.790 4188296.460 27.510
1417287.310 4188296.290 26.480
1417288.610 4188296.310 26.570
1417291.620 4188294.920 18.420
1417292.940 4188294.930 18.410
1417294.250 4188294.950 18.470
1417295.560 4188294.950 18.470
1417296.890 4188294.980 18.560
1417298.040 4188295.120 19.360
1417298.850 4188295.530 21.730
1417300.170 4188295.540 21.710
1417301.500 4188295.550 21.670
1417302.830 4188295.550 21.680
1417304.150 4188295.550 21.580
1417305.490 4188295.550 21.580
1417306.810 4188295.560 21.580
1417307.730 4188295.880 23.420
1417309.030 4188295.900 23.470
1417310.390 4188295.880 23.270
1417311.710 4188295.910 23.390
1417313.690 4188294.360 14.330
1417313.730 4188295.370 20.140
1417313.660 4188296.450 26.500
1417314.620 4188296.730 28.060
1417316.060 4188296.640 27.530
1417317.490 4188296.570 27.050
1417318.860 4188296.530 26.740
1417323.120 4188294.310 13.730
1417322.200 4188296.050 23.760
1417322.830 4188296.560 26.770
1417325.210 4188296.770 27.930
1417326.640 4188296.710 27.490
1417328.040 4188296.660 27.090
1417329.460 4188296.600 26.690
1417329.650 4188296.140 26.740
1417328.020 4188296.210 27.190
1417326.370 4188296.260 27.670
1417324.720 4188296.330 28.150
1417323.200 4188293.940 14.330
1417318.860 4188296.060 26.790
1417317.220 4188296.120 27.240
1417315.560 4188296.200 27.750
1417313.920 4188296.270 28.260
1417313.800 4188295.150 21.710
1417311.910 4188295.410 23.330
1417313.800 4188293.930 14.700
1417310.360 4188295.390 23.270
1417308.820 4188295.380 23.330
1417307.600 4188295.100 21.750
1417306.120 4188295.050 21.510
1417304.550 4188295.050 21.570
1417303.000 4188295.050 21.630
1417301.440 4188295.040 21.620
1417299.880 4188295.030 21.700
1417298.330 4188295.020 21.680
1417297.430 4188294.490 18.670
1417295.890 4188294.470 18.590
1417294.330 4188294.460 18.590
1417292.780 4188294.450 18.580
1417291.240 4188294.420 18.540
1417288.030 4188295.790 26.570
1417286.510 4188295.760 26.400
1417285.550 4188295.270 23.610
1417285.950 4188293.620 14.070
1417285.620 4188292.590 8.090
1417275.590 4188297.090 34.530
1417266.590 4188296.850 33.490
1417265.160 4188296.740 32.950
1417263.760 4188296.610 32.270
1417261.400 4188295.960 28.600
1417260.620 4188295.290 24.730
1417260.480 4188294.020 17.440
1417261.300 4188291.740 10.690
1417261.430 4188292.820 16.920
1417260.540 4188294.800 28.400
1417261.260 4188294.170 24.690
1417261.330 4188295.260 31.010
1417262.550 4188295.360 31.550
1417263.770 4188295.460 32.090
1417264.960 4188295.570 32.700
1417267.360 4188295.770 33.790
1417275.800 4188293.090 17.970
1417276.250 4188293.850 22.360
1417275.130 4188295.920 34.390
1417277.470 4188293.950 22.880
1417281.670 4188291.500 8.540
1417283.210 4188291.350 7.640
1417285.820 4188291.410 7.860
1417285.830 4188292.510 14.290
1417285.830 4188293.630 20.770
1417286.540 4188294.160 23.820
1417287.850 4188294.170 23.870
1417288.610 4188294.650 26.600
1417291.540 4188293.330 18.890
1417292.870 4188293.340 18.880
1417294.210 4188293.350 18.860
1417295.530 4188293.350 18.830
1417296.860 4188293.370 18.900
1417297.510 4188293.930 22.130
1417298.970 4188293.820 21.440
1417300.320 4188293.800 21.320
1417301.640 4188293.820 21.340
1417302.980 4188293.830 21.330
1417304.300 4188293.830 21.290
1417305.640 4188293.830 21.290
1417306.970 4188293.840 21.290
1417307.920 4188294.140 22.980
1417309.250 4188294.140 22.960
1417310.570 4188294.160 22.960
1417311.920 4188294.170 22.970
1417313.740 4188292.750 14.700
1417313.690 4188293.820 20.880
1417313.730 4188294.830 26.740
1417314.760 4188295.060 28.060
1417315.820 4188295.270 29.260
1417317.110 4188295.310 29.420
1417318.440 4188295.310 29.350
1417323.230 4188292.680 13.950
1417323.020 4188293.870 20.810
1417322.950 4188294.930 27.000
1417324.130 4188295.040 27.590
1417325.490 4188295.010 27.400
1417326.950 4188294.940 26.910
1417327.840 4188295.270 28.750
1417329.800 4188294.800 25.950
1417330.620 4188294.440 26.520
1417329.170 4188294.370 26.140
1417327.520 4188294.460 26.700
1417325.870 4188294.510 27.220
1417324.270 4188294.560 27.540
1417322.990 4188294.360 26.430
1417323.430 4188292.850 17.650
1417323.240 4188291.800 11.600
1417317.700 4188294.850 29.520
1417316.180 4188294.830 29.470
1417317.140 4188294.100 25.180
1417314.960 4188294.580 28.050
1417313.840 4188294.250 26.200
1417313.730 4188293.130 19.690
1417311.510 4188293.660 22.830
1417309.980 4188293.630 22.800
1417308.420 4188293.630 22.880
1417307.230 4188293.350 21.260
1417305.690 4188293.340 21.300
1417304.150 4188293.330 21.250
1417302.610 4188293.320 21.260
1417301.060 4188293.300 21.280
1417299.520 4188293.300 21.320
1417297.660 4188293.540 22.790
1417296.930 4188292.890 19.020
1417295.380 4188292.860 18.930
1417293.850 4188292.860 18.990
1417292.280 4188292.840 18.990
1417289.170 4188294.140 26.590
1417288.140 4188293.700 24.040
1417286.660 4188293.650 23.830
1417285.790 4188293.070 20.480
1417285.780 4188291.790 13.090
1417285.270 4188290.880 7.900
1417283.710 4188290.890 7.990
1417277.190 4188293.780 24.970
1417275.780 4188293.660 24.320
1417275.720 4188292.360 16.880
1417266.300 4188295.150 33.290
1417262.090 4188294.780 31.370
1417261.100 4188294.290 28.560
1417260.970 4188293.040 21.320
1417261.660 4188292.430 17.760
1417260.290 4188292.260 16.850
1417261.980 4188290.740 8.040
1417260.520 4188290.660 7.590
1417261.280 4188289.560 7.680
1417260.680 4188291.260 17.540
1417260.620 4188292.520 24.790
1417261.330 4188291.880 21.100
1417261.160 4188293.190 28.680
1417261.800 4188293.780 32.120
1417263.130 4188293.770 31.980
1417264.360 4188293.840 32.350
1417266.740 4188294.080 33.580
1417272.830 4188293.370 29.330
1417275.810 4188290.810 14.450
1417275.860 4188291.900 20.750
1417276.290 4188292.690 25.230
1417277.670 4188292.640 24.910
1417281.290 4188290.680 13.490
1417282.560 4188290.720 13.710
1417283.810 4188290.790 14.070
1417285.160 4188290.790 14.000
1417285.930 4188291.260 16.660
1417285.850 4188292.450 23.510
1417289.150 4188293.000 26.650
1417292.000 4188291.740 19.280
1417293.310 4188291.770 19.400
1417294.660 4188291.760 19.260
1417295.960 4188291.780 19.350
1417297.270 4188291.800 19.390
1417298.280 4188292.040 20.800
1417299.560 4188292.100 21.090
1417300.890 4188292.100 21.030
1417302.200 4188292.120 21.060
1417303.530 4188292.120 21.010
1417304.850 4188292.120 21.010
1417306.170 4188292.140 21.040
1417307.470 4188292.160 21.120
1417308.480 4188292.420 22.590
1417309.830 4188292.410 22.500
1417311.140 4188292.420 22.460
1417313.450 4188291.670 18.000
1417313.710 4188292.490 22.800
1417314.320 4188293.060 26.110
1417315.720 4188293.000 25.710
1417317.140 4188292.930 25.240
1417318.540 4188292.870 24.870
1417323.110 4188290.400 10.320
1417323.190 4188291.360 15.880
1417323.080 4188292.460 22.270
1417323.290 4188293.320 27.290
1417324.530 4188293.380 27.580
1417325.950 4188293.310 27.140
1417327.330 4188293.280 26.840
1417328.770 4188293.200 26.260
1417329.990 4188293.290 26.800
1417330.530 4188293.140 28.540
1417329.560 4188292.710 26.080
1417327.900 4188292.780 26.600
1417326.260 4188292.840 27.060
1417324.610 4188292.920 27.580
1417323.140 4188292.860 27.310
1417323.080 4188291.730 20.730
1417323.100 4188290.520 13.740
1417319.100 4188292.380 24.720
1417317.470 4188292.450 25.170
1417315.820 4188292.520 25.650
1417314.170 4188292.600 26.190
1417313.610 4188291.830 21.670
1417311.910 4188291.940 22.450
1417313.100 4188291.020 17.010
1417310.360 4188291.910 22.380
1417308.730 4188291.980 22.820
1417307.560 4188291.660 21.050
1417306.040 4188291.640 20.970
1417304.480 4188291.630 20.980
1417302.960 4188291.620 20.940
1417301.380 4188291.600 20.990
1417299.840 4188291.600 21.010
1417298.360 4188291.530 20.680
1417297.050 4188291.330 19.570
1417295.520 4188291.310 19.480
1417293.970 4188291.300 19.470
1417292.420 4188291.280 19.480
1417289.910 4188292.070 24.100
1417286.480 4188292.320 25.690
1417285.970 4188291.450 20.690
1417285.160 4188290.820 17.090
1417283.680 4188290.740 16.720
1417282.120 4188290.740 16.740
1417280.810 4188290.530 15.600
1417277.350 4188292.150 25.040
1417275.850 4188292.100 24.880
1417275.850 4188290.760 17.120
1417266.440 4188293.510 33.360
1417265.030 4188293.390 32.710
1417263.580 4188293.300 32.280
1417261.190 4188292.680 28.740
1417261.160 4188291.330 20.960
1417260.420 4188290.610 16.820
1417262.080 4188289.130 8.220
1417260.400 4188289.230 8.840
1417261.010 4188287.980 7.810
1417260.540 4188289.580 17.090
1417261.730 4188288.520 10.930
1417261.100 4188290.260 20.990
1417260.940 4188291.570 28.560
1417261.690 4188290.910 24.700
1417264.030 4188292.310 32.840
1417265.320 4188292.350 32.970
1417266.050 4188292.860 35.940
1417272.660 4188291.730 29.100
1417272.830 4188292.700 34.750
1417275.900 4188290.080 19.500
1417276.070 4188291.070 25.220
1417277.430 4188291.050 24.990
1417279.540 4188290.380 21.070
1417280.760 4188290.470 21.570
1417282.030 4188290.510 21.750
1417283.230 4188290.630 22.410
1417284.370 4188290.790 23.320
1417285.530 4188290.940 24.060
1417286.350 4188291.360 26.470
1417288.970 4188291.400 26.640
1417291.380 4188290.490 21.340
1417292.230 4188290.890 23.610
1417292.990 4188291.360 26.320
1417293.710 4188290.770 22.890
1417294.680 4188291.070 24.530
1417298.660 4188288.920 11.920
1417299.790 4188289.080 12.810
1417301.180 4188289.060 12.640
1417301.420 4188289.940 17.730
1417301.550 4188290.890 23.300
1417302.650 4188291.080 24.300
1417304.020 4188291.050 24.120
1417307.850 4188289.090 12.570
1417307.370 4188290.510 20.850
1417308.190 4188290.920 23.200
1417309.630 4188290.840 22.710
1417310.910 4188289.840 16.820
1417312.170 4188289.900 17.120
1417313.120 4188290.210 18.840
1417313.570 4188290.880 22.770
1417314.310 4188291.360 25.510
1417315.590 4188291.390 25.690
1417316.980 4188291.340 25.350
1417318.380 4188291.280 24.940
1417319.750 4188291.250 24.750
1417321.350 4188290.040 17.570
1417322.070 4188290.520 20.310
1417323.160 4188290.700 21.340
1417323.160 4188291.710 27.260
1417324.420 4188291.770 27.530
1417325.810 4188291.710 27.170
1417327.230 4188291.650 26.720
1417328.640 4188291.600 26.320
1417330.060 4188291.550 25.980
1417329.740 4188291.130 26.090
1417328.100 4188291.190 26.550
1417326.450 4188291.270 27.060
1417324.790 4188291.350 27.610
1417323.320 4188291.280 27.290
1417323.070 4188290.300 21.560
1417321.550 4188290.280 21.490
1417319.270 4188290.810 24.780
1417317.620 4188290.880 25.260
1417316.010 4188290.920 25.550
1417314.490 4188290.900 25.480
1417313.520 4188290.440 22.820
1417312.580 4188289.980 20.140
1417311.160 4188289.840 19.490
1417308.870 4188290.430 22.990
1417307.460 4188290.300 22.300
1417307.760 4188288.830 13.760
1417303.410 4188291.030 26.660
1417301.920 4188290.990 26.510
1417301.540 4188290.020 20.960
1417301.210 4188289.050 15.290
1417299.930 4188288.810 13.970
1417298.440 4188288.750 13.700
1417294.230 4188290.900 26.270
1417292.770 4188290.820 25.940
1417291.440 4188290.630 24.870
1417289.280 4188291.130 27.810
1417287.810 4188291.060 27.470
1417286.360 4188290.980 27.040
1417285.150 4188290.670 25.350
1417283.570 4188290.690 25.510
1417282.160 4188290.560 24.850
1417282.850 4188289.980 21.460
1417280.710 4188290.460 24.330
1417279.250 4188290.390 23.940
1417277.480 4188290.570 25.020
1417276.110 4188290.410 24.200
1417275.220 4188289.830 20.890
1417266.020 4188292.390 36.110
1417262.250 4188291.630 31.800
1417261.320 4188291.090 28.670
1417261.260 4188289.770 21.070
1417261.830 4188287.880 10.110
1417260.720 4188287.460 7.720
1417261.670 4188286.550 9.280
1417260.730 4188288.580 21.030
1417261.540 4188287.850 16.820
1417261.360 4188289.200 24.590
1417261.140 4188290.530 32.390
1417262.450 4188290.560 32.510
1417266.130 4188290.800 33.770
1417267.450 4188290.810 33.770
1417274.350 4188289.440 25.590
1417274.980 4188290.030 28.990
1417276.260 4188290.070 29.150
1417277.780 4188289.910 28.150
1417279.100 4188289.930 28.250
1417280.400 4188289.950 28.300
1417281.700 4188289.970 28.380
1417284.300 4188290.020 28.630
1417285.630 4188290.040 28.600
1417288.260 4188290.060 28.680
1417291.040 4188289.950 27.970
1417292.360 4188289.950 27.950
1417293.680 4188289.960 27.970
1417295.000 4188289.990 28.050
1417297.810 4188288.780 20.960
1417299.060 4188288.850 21.350
1417300.390 4188288.860 21.330
1417301.430 4188289.090 22.660
1417301.470 4188290.130 28.630
1417302.310 4188290.510 30.850
1417303.630 4188290.550 30.960
1417307.850 4188288.260 17.570
1417307.830 4188289.330 23.760
1417308.400 4188289.930 27.220
1417309.710 4188289.940 27.270
1417311.040 4188289.960 27.310
1417312.350 4188289.970 27.310
1417313.670 4188289.990 27.360
1417315.480 4188289.610 25.140
1417316.830 4188289.600 25.030
1417317.650 4188290.000 27.290
1417318.960 4188290.010 27.310
1417320.300 4188290.030 27.340
1417321.620 4188290.040 27.340
1417322.920 4188290.050 27.400
1417324.220 4188290.080 27.490
1417325.580 4188290.060 27.340
1417327.010 4188290.000 26.900
1417328.430 4188289.930 26.440
1417329.870 4188289.870 25.990
1417330.770 4188289.510 26.620
1417329.330 4188289.430 26.200
1417327.690 4188289.490 26.700
1417326.020 4188289.560 27.230
1417324.410 4188289.610 27.570
1417322.890 4188289.590 27.500
1417321.360 4188289.580 27.480
1417319.830 4188289.550 27.430
1417318.300 4188289.530 27.400
1417317.290 4188289.110 25.010
1417315.760 4188289.100 24.990
1417313.670 4188289.520 27.470
1417312.130 4188289.510 27.480
1417310.600 4188289.480 27.430
1417309.080 4188289.460 27.360
1417307.900 4188289.170 25.700
1417307.660 4188288.130 19.700
1417303.600 4188290.110 31.300
1417302.160 4188290.010 30.840
1417301.650 4188289.180 26.070
1417300.350 4188288.970 24.880
1417298.950 4188288.850 24.250
1417297.520 4188288.740 23.640
1417295.040 4188289.500 28.160
1417293.490 4188289.480 28.130
1417291.970 4188289.470 28.110
1417287.120 4188289.610 29.110
1417285.590 4188289.590 29.100
1417282.540 4188289.540 28.910
1417280.990 4188289.530 28.910
1417279.520 4188289.460 28.550
1417276.260 4188289.590 29.480
1417274.760 4188289.550 29.260
1417273.240 4188289.520 29.170
1417267.700 4188290.280 33.760
1417261.780 4188290.040 32.660
1417261.060 4188289.320 28.480
1417261.790 4188287.290 16.710
1417261.830 4188285.860 8.430
1417261.900 4188284.850 9.020
1417261.730 4188286.180 16.750
1417261.520 4188287.550 24.680
1417266.300 4188289.160 33.920
1417267.650 4188289.150 33.760
1417269.080 4188289.060 33.150
1417270.380 4188289.070 33.180
1417271.710 4188289.080 33.190
1417274.990 4188288.530 29.930
1417275.860 4188288.920 32.130
1417277.490 4188288.680 30.650
1417279.030 4188288.510 29.600
1417280.110 4188288.700 30.730
1417280.970 4188289.100 33.010
1417282.760 4188288.730 30.790
1417284.310 4188288.550 29.700
1417285.410 4188288.720 30.680
1417286.900 4188288.610 29.920
1417290.830 4188288.660 30.110
1417292.140 4188288.670 30.160
1417295.000 4188288.520 29.170
1417296.080 4188288.720 30.260
1417297.350 4188288.780 30.590
1417298.640 4188288.810 30.730
1417299.930 4188288.840 30.850
1417301.250 4188288.840 30.840
1417302.530 4188288.890 31.050
1417305.660 4188288.540 28.900
1417306.410 4188287.940 25.440
1417307.510 4188288.130 26.480
1417308.560 4188288.360 27.760
1417309.880 4188288.360 27.730
1417311.200 4188288.370 27.770
1417312.510 4188288.400 27.810
1417313.840 4188288.410 27.860
1417315.810 4188287.910 24.920
1417317.170 4188287.890 24.760
1417317.840 4188288.400 27.710
1417319.150 4188288.420 27.740
1417320.480 4188288.420 27.740
1417321.780 4188288.460 27.830
1417323.130 4188288.450 27.750
1417324.470 4188288.440 27.680
1417325.890 4188288.380 27.290
1417327.300 4188288.330 26.910
1417328.720 4188288.260 26.460
1417330.170 4188288.210 26.020
1417330.730 4188287.830 26.550
1417329.250 4188287.770 26.290
1417327.600 4188287.850 26.810
1417325.960 4188287.910 27.250
1417324.310 4188287.980 27.750
1417322.730 4188288.000 27.880
1417321.210 4188287.970 27.810
1417319.660 4188287.960 27.830
1417318.130 4188287.950 27.830
1417317.260 4188287.420 24.790
1417315.640 4188287.470 25.140
1417313.470 4188287.940 27.960
1417311.940 4188287.920 27.930
1417310.400 4188287.910 27.920
1417308.860 4188287.890 27.910
1417307.090 4188288.060 28.940
1417305.550 4188288.060 28.960
1417303.370 4188288.550 31.950
1417302.010 4188288.380 31.000
1417300.480 4188288.370 31.000
1417298.940 4188288.360 30.970
1417297.410 4188288.340 30.960
1417295.870 4188288.320 30.860
1417294.350 4188288.290 30.840
1417292.800 4188288.280 30.810
1417291.320 4188288.230 30.580
1417286.730 4188288.160 30.310
1417285.150 4188288.180 30.550
1417281.510 4188288.630 33.270
1417276.830 4188288.620 33.400
1417275.850 4188288.150 30.730
1417272.250 4188288.560 33.240
1417270.650 4188288.600 33.510
1417268.860 4188288.800 34.770
1417267.050 4188289.020 36.160
1417265.860 4188288.710 34.400
1417261.600 4188287.000 24.640
1417261.530 4188285.680 17.010
1417261.740 4188284.080 7.800
1417260.200 4188284.070 7.780
1417261.920 4188282.990 7.850
1417262.010 4188284.100 14.210
1417261.270 4188285.940 24.890
1417262.210 4188285.110 20.030
1417261.790 4188286.640 28.890
1417262.470 4188287.200 32.180
1417265.040 4188287.250 32.340
1417266.190 4188287.390 33.120
1417267.370 4188287.500 33.740
1417268.810 4188287.410 33.180
1417270.060 4188287.470 33.420
1417271.380 4188287.460 33.350
1417272.710 4188287.450 33.220
1417275.800 4188287.060 30.890
1417276.530 4188287.560 33.740
1417278.460 4188287.070 30.800
1417279.760 4188287.080 30.840
1417281.030 4188287.110 31.000
1417281.900 4188287.480 33.110
1417283.670 4188287.110 30.890
1417284.980 4188287.120 30.950
1417286.270 4188287.140 31.020
1417287.570 4188287.170 31.090
1417288.450 4188287.530 33.130
1417290.210 4188287.170 31.030
1417291.520 4188287.180 31.060
1417292.780 4188287.220 31.220
1417294.130 4188287.220 31.220
1417295.420 4188287.250 31.260
1417296.730 4188287.260 31.290
1417298.030 4188287.270 31.310
1417299.340 4188287.280 31.340
1417300.670 4188287.290 31.360
1417301.610 4188287.570 32.980
1417303.220 4188287.360 31.690
1417304.530 4188287.380 31.690
1417305.830 4188287.390 31.760
1417307.150 4188287.400 31.750
1417308.420 4188287.430 31.890
1417309.220 4188286.790 28.180
1417310.540 4188286.810 28.260
1417311.860 4188286.820 28.250
1417313.160 4188286.840 28.260
1417314.450 4188286.860 28.370
1417316.380 4188286.390 25.570
1417317.700 4188286.410 25.650
1417318.490 4188286.810 27.960
1417319.810 4188286.810 27.930
1417321.150 4188286.820 27.900
1417322.480 4188286.820 27.820
1417323.790 4188286.830 27.860
1417325.180 4188286.780 27.500
1417326.600 4188286.720 27.100
1417328.020 4188286.650 26.610
1417329.420 4188286.590 26.230
1417330.670 4188286.660 26.520
1417330.900 4188286.260 26.620
1417329.460 4188286.170 26.210
1417327.820 4188286.250 26.720
1417326.170 4188286.320 27.250
1417324.540 4188286.390 27.700
1417323.000 4188286.380 27.710
1417321.480 4188286.360 27.700
1417319.920 4188286.370 27.800
1417318.380 4188286.360 27.820
1417316.850 4188286.340 27.760
1417315.310 4188286.350 27.850
1417313.640 4188286.450 28.460
1417312.110 4188286.420 28.430
1417310.590 4188286.410 28.420
1417308.270 4188287.010 31.970
1417309.070 4188286.380 28.300
1417306.760 4188286.990 31.900
1417305.230 4188286.970 31.850
1417303.710 4188286.960 31.870
1417301.920 4188287.140 33.010
1417300.720 4188286.870 31.490
1417299.190 4188286.860 31.460
1417297.660 4188286.850 31.460
1417296.120 4188286.840 31.430
1417294.610 4188286.810 31.390
1417293.060 4188286.800 31.380
1417291.570 4188286.760 31.220
1417290.030 4188286.750 31.210
1417288.160 4188287.030 32.860
1417286.970 4188286.730 31.190
1417285.450 4188286.700 31.140
1417283.920 4188286.690 31.090
1417282.410 4188286.660 31.010
1417280.870 4188286.660 31.050
1417279.340 4188286.640 30.970
1417277.820 4188286.620 30.940
1417276.180 4188286.700 31.460
1417272.740 4188286.980 33.230
1417271.230 4188286.960 33.150
1417269.670 4188286.980 33.320
1417268.060 4188287.030 33.700
1417266.650 4188286.920 33.100
1417263.830 4188286.690 31.860
1417261.430 4188286.100 28.520
1417262.090 4188285.510 25.120
1417261.990 4188284.220 17.660
1417262.070 4188282.760 9.280
1417262.050 4188281.380 7.920
1417262.190 4188282.440 14.060
1417261.980 4188283.810 21.980
1417262.010 4188284.970 28.620
1417262.780 4188285.460 31.430
1417267.580 4188285.880 33.730
1417269.020 4188285.780 33.150
1417270.310 4188285.810 33.230
1417271.620 4188285.830 33.290
1417272.950 4188285.830 33.250
1417277.230 4188285.560 31.590
1417278.620 4188285.520 31.320
1417279.920 4188285.550 31.380
1417281.220 4188285.570 31.440
1417282.540 4188285.570 31.400
1417283.850 4188285.590 31.480
1417285.170 4188285.590 31.480
1417286.480 4188285.600 31.510
1417287.800 4188285.630 31.580
1417288.770 4188285.920 33.210
1417290.420 4188285.650 31.640
1417291.740 4188285.660 31.640
1417293.040 4188285.680 31.710
1417294.380 4188285.680 31.690
1417295.690 4188285.700 31.740
1417297.010 4188285.720 31.790
1417298.320 4188285.730 31.820
1417299.640 4188285.740 31.810
1417300.960 4188285.750 31.870
1417301.960 4188286.000 33.240
1417303.540 4188285.820 32.210
1417304.850 4188285.840 32.200
1417306.160 4188285.850 32.250
1417307.470 4188285.860 32.260
1417310.920 4188285.250 28.640
1417312.210 4188285.270 28.710
1417313.550 4188285.280 28.680
1417315.150 4188285.080 27.470
1417316.490 4188285.080 27.430
1417317.810 4188285.090 27.440
1417319.140 4188285.080 27.360
1417320.480 4188285.090 27.360
1417321.810 4188285.090 27.340
1417323.140 4188285.100 27.290
1417324.460 4188285.100 27.260
1417325.800 4188285.100 27.220
1417327.190 4188285.080 26.960
1417328.620 4188284.990 26.450
1417330.050 4188284.930 26.020
1417330.530 4188284.410 26.030
1417328.890 4188284.470 26.420
1417327.240 4188284.560 27.020
1417325.670 4188284.560 27.110
1417324.140 4188284.560 27.150
1417322.590 4188284.550 27.160
1417321.060 4188284.540 27.200
1417319.500 4188284.540 27.270
1417317.980 4188284.520 27.220
1417316.430 4188284.520 27.280
1417314.610 4188284.710 28.450
1417313.050 4188284.720 28.610
1417311.510 4188284.710 28.610
1417307.600 4188285.360 32.470
1417306.070 4188285.340 32.440
1417304.540 4188285.310 32.360
1417303.000 4188285.310 32.410
1417301.520 4188285.250 32.120
1417300.000 4188285.230 32.080
1417298.480 4188285.210 32.010
1417296.940 4188285.200 32.000
1417295.420 4188285.170 31.930
1417293.870 4188285.160 31.940
1417292.330 4188285.150 31.950
1417290.810 4188285.130 31.840
1417289.250 4188285.130 31.930
1417287.750 4188285.090 31.760
1417286.230 4188285.060 31.670
1417284.690 4188285.050 31.640
1417283.160 4188285.030 31.610
1417281.620 4188285.030 31.660
1417280.090 4188285.010 31.570
1417278.560 4188284.980 31.510
1417276.890 4188285.080 32.140
1417272.050 4188285.260 33.330
1417270.420 4188285.310 33.690
1417268.980 4188285.220 33.290
1417267.390 4188285.250 33.480
1417263.210 4188284.850 31.350
1417262.190 4188284.380 28.650
1417262.010 4188283.170 21.750
1417262.730 4188282.540 18.020
1417262.200 4188281.600 12.690
1417261.610 4188280.750 7.780
1417262.010 4188279.640 7.830
1417261.600 4188281.190 16.760
1417262.030 4188281.980 21.310
1417261.910 4188283.230 28.590
1417263.910 4188283.810 31.830
1417266.240 4188284.070 33.220
1417267.260 4188284.310 34.660
1417268.860 4188284.080 33.240
1417270.190 4188284.070 33.110
1417271.540 4188284.040 32.870
1417272.910 4188283.990 32.550
1417276.420 4188284.360 34.560
1417278.270 4188283.910 31.940
1417279.560 4188283.940 32.020
1417280.870 4188283.940 31.980
1417282.180 4188283.940 31.950
1417283.480 4188283.960 32.020
1417284.790 4188283.970 32.050
1417286.080 4188283.980 32.090
1417287.390 4188283.990 32.110
1417288.690 4188284.020 32.190
1417289.990 4188284.030 32.220
1417291.290 4188284.060 32.330
1417292.610 4188284.050 32.240
1417293.940 4188284.060 32.270
1417295.240 4188284.070 32.290
1417296.540 4188284.080 32.320
1417297.850 4188284.100 32.300
1417299.170 4188284.100 32.260
1417300.510 4188284.090 32.220
1417301.800 4188284.100 32.230
1417303.000 4188284.200 32.750
1417304.310 4188284.210 32.760
1417305.620 4188284.220 32.760
1417306.920 4188284.240 32.800
1417308.220 4188284.240 32.800
1417310.550 4188283.470 28.270
1417311.870 4188283.470 28.230
1417313.200 4188283.470 28.170
1417314.500 4188283.490 28.200
1417316.110 4188283.260 26.850
1417317.440 4188283.270 26.830
1417318.750 4188283.280 26.850
1417320.060 4188283.290 26.870
1417321.390 4188283.280 26.770
1417322.740 4188283.260 26.650
1417324.040 4188283.290 26.690
1417325.360 4188283.290 26.660
1417326.700 4188283.290 26.590
1417328.020 4188283.290 26.550
1417329.400 4188283.250 26.240
1417330.250 4188283.600 28.260
1417330.670 4188283.230 28.720
1417329.730 4188282.790 26.160
1417328.120 4188282.830 26.460
1417326.600 4188282.810 26.410
1417325.050 4188282.820 26.510
1417323.500 4188282.810 26.540
1417320.070 4188283.060 28.160
1417319.370 4188282.400 24.360
1417317.330 4188282.780 26.670
1417315.740 4188282.800 26.830
1417313.940 4188282.990 28.070
1417312.390 4188282.980 28.060
1417310.850 4188282.990 28.150
1417308.300 4188283.760 32.670
1417306.770 4188283.750 32.700
1417305.220 4188283.730 32.700
1417303.690 4188283.730 32.770
1417302.260 4188283.620 32.180
1417300.760 4188283.600 32.100
1417299.210 4188283.590 32.100
1417297.670 4188283.590 32.140
1417296.120 4188283.580 32.190
1417294.570 4188283.580 32.280
1417293.010 4188283.590 32.360
1417291.470 4188283.590 32.410
1417289.930 4188283.570 32.380
1417288.400 4188283.560 32.320
1417286.880 4188283.530 32.250
1417285.330 4188283.510 32.230
1417283.820 4188283.500 32.170
1417282.270 4188283.480 32.150
1417280.740 4188283.470 32.140
1417277.380 4188283.680 33.520
1417272.920 4188283.530 32.770
1417271.380 4188283.520 32.790
1417269.800 4188283.550 33.060
1417268.120 4188283.660 33.760
1417266.430 4188283.760 34.470
1417265.290 4188283.420 32.450
1417263.890 4188283.300 31.820
1417262.860 4188282.840 29.190
1417262.200 4188282.050 24.720
1417262.180 4188280.690 16.890
1417262.310 4188279.190 8.190
1417262.360 4188278.160 8.600
1417262.120 4188279.560 16.720
1417261.860 4188280.980 24.930
1417262.430 4188281.640 28.700
1417263.200 4188282.120 31.390
1417265.630 4188282.320 32.520
1417266.800 4188282.450 33.220
1417267.990 4188282.550 33.790
1417269.380 4188282.490 33.390
1417270.710 4188282.490 33.330
1417272.010 4188282.510 33.400
1417273.310 4188282.530 33.460
1417274.620 4188282.550 33.510
1417275.890 4188282.580 33.670
1417277.200 4188282.590 33.710
1417278.730 4188282.410 32.620
1417280.080 4188282.390 32.430
1417281.450 4188282.370 32.280
1417282.780 4188282.360 32.190
1417284.110 4188282.350 32.080
1417285.410 4188282.370 32.140
1417286.760 4188282.360 32.050
1417288.090 4188282.360 32.010
1417289.390 4188282.380 32.050
1417290.730 4188282.380 31.980
1417291.710 4188282.660 33.590
1417293.390 4188282.370 31.870
1417294.720 4188282.370 31.840
1417296.040 4188282.370 31.800
1417297.390 4188282.380 31.750
1417298.710 4188282.380 31.700
1417300.030 4188282.380 31.690
1417301.360 4188282.380 31.650
1417302.330 4188282.660 33.230
1417303.850 4188282.510 32.310
1417305.170 4188282.510 32.290
1417306.520 4188282.520 32.240
1417307.840 4188282.520 32.220
1417309.010 4188282.640 32.870
1417310.120 4188281.770 27.840
1417311.450 4188281.770 27.770
1417312.780 4188281.770 27.730
1417314.120 4188281.770 27.720
1417315.310 4188281.890 28.290
1417317.080 4188281.540 26.260
1417318.410 4188281.540 26.220
1417319.740 4188281.550 26.190
1417321.070 4188281.550 26.160
1417322.390 4188281.560 26.170
1417323.740 4188281.560 26.120
1417325.060 4188281.580 26.120
1417326.390 4188281.580 26.050
1417327.720 4188281.580 26.030
1417329.050 4188281.580 25.980
1417330.410 4188281.580 25.950
1417330.790 4188281.230 26.520
1417329.350 4188281.150 26.110
1417327.860 4188281.110 25.920
1417326.320 4188281.100 25.940
1417324.790 4188281.100 25.980
1417323.250 4188281.080 26.000
1417321.710 4188281.070 26.050
1417320.180 4188281.060 26.040
1417318.640 4188281.060 26.090
1417317.110 4188281.050 26.090
1417315.570 4188281.050 26.130
1417313.720 4188281.270 27.520
1417312.170 4188281.270 27.590
1417310.640 4188281.270 27.620
1417308.130 4188282.030 32.100
1417306.590 4188282.020 32.090
1417305.050 4188282.010 32.130
1417303.500 4188282.020 32.270
1417302.100 4188281.900 31.600
1417300.600 4188281.880 31.540
1417299.040 4188281.880 31.590
1417297.530 4188281.870 31.590
1417295.960 4188281.860 31.680
1417294.460 4188281.850 31.650
1417292.890 4188281.860 31.750
1417291.340 4188281.870 31.860
1417289.800 4188281.860 31.860
1417288.270 4188281.840 31.870
1417286.730 4188281.840 31.920
1417285.190 4188281.840 31.960
1417283.640 4188281.840 31.980
1417282.100 4188281.840 32.050
1417280.560 4188281.840 32.110
1417279.000 4188281.830 32.180
1417277.150 4188282.100 33.780
1417275.610 4188282.090 33.780
1417274.090 4188282.080 33.790
1417272.560 4188282.070 33.770
1417271.050 4188282.040 33.690
1417269.520 4188282.030 33.700
1417267.980 4188282.040 33.770
1417266.590 4188281.910 33.070
1417265.140 4188281.830 32.680
1417263.830 4188281.630 31.560
1417262.100 4188280.430 24.750
1417262.110 4188279.040 16.740
1417262.260 4188277.530 8.000
1417261.590 4188277.860 16.760
1417262.660 4188276.900 11.210
1417262.100 4188278.590 21.000
1417261.930 4188279.900 28.530
1417262.630 4188279.290 24.980
1417264.530 4188281.080 35.300
1417265.810 4188281.100 35.400
1417267.490 4188280.780 33.430
1417276.700 4188280.780 33.110
1417278.290 4188280.550 31.740
1417279.600 4188280.550 31.700
1417280.910 4188280.560 31.710
1417282.230 4188280.560 31.670
1417283.550 4188280.560 31.590
1417284.880 4188280.560 31.570
1417286.190 4188280.560 31.550
1417287.500 4188280.560 31.500
1417288.790 4188280.570 31.540
1417290.130 4188280.570 31.450
1417291.440 4188280.580 31.480
1417292.370 4188280.890 33.210
1417294.090 4188280.570 31.320
1417295.410 4188280.570 31.280
1417296.730 4188280.570 31.260
1417298.040 4188280.580 31.210
1417299.350 4188280.580 31.180
1417300.690 4188280.570 31.120
1417301.990 4188280.580 31.140
1417302.730 4188281.030 33.710
1417304.470 4188280.700 31.730
1417305.800 4188280.700 31.720
1417307.130 4188280.710 31.690
1417308.430 4188280.720 31.680
1417310.710 4188279.970 27.250
1417312.020 4188279.970 27.260
1417313.340 4188279.970 27.230
1417314.680 4188279.960 27.120
1417316.130 4188279.860 26.420
1417317.450 4188279.880 26.490
1417318.750 4188279.890 26.510
1417320.080 4188279.880 26.410
1417321.580 4188279.740 25.570
1417316.100 4188279.280 25.650
1417314.440 4188279.350 26.180
1417312.790 4188279.420 26.650
1417311.200 4188279.460 26.910
1417308.640 4188280.250 31.550
1417309.650 4188279.440 26.890
1417307.110 4188280.230 31.530
1417305.550 4188280.220 31.580
1417304.010 4188280.220 31.630
1417302.370 4188280.280 31.990
1417301.050 4188280.100 31.030
1417299.490 4188280.090 31.040
1417297.950 4188280.080 31.100
1417296.400 4188280.070 31.070
1417294.860 4188280.080 31.150
1417293.290 4188280.080 31.220
1417291.700 4188280.120 31.490
1417290.190 4188280.070 31.280
1417288.640 4188280.060 31.340
1417287.090 4188280.060 31.370
1417285.550 4188280.060 31.400
1417283.990 4188280.060 31.460
1417282.120 4188280.330 33.060
1417280.880 4188280.060 31.560
1417279.330 4188280.040 31.560
1417277.030 4188280.670 35.300
1417264.740 4188280.580 35.280
1417263.820 4188280.040 32.100
1417262.200 4188278.720 24.640
1417262.180 4188277.360 16.750
1417262.300 4188275.860 8.090
1417261.710 4188274.740 8.070
1417261.820 4188277.030 21.300
1417262.680 4188276.270 16.860
1417261.750 4188278.260 28.360
1417262.470 4188277.630 24.700
1417276.670 4188279.120 32.820
1417277.470 4188279.570 35.420
1417279.670 4188278.840 31.130
1417280.990 4188278.850 31.130
1417281.770 4188279.310 33.750
1417283.630 4188278.860 31.050
1417284.970 4188278.860 31.060
1417286.290 4188278.860 31.010
1417287.620 4188278.860 30.960
1417288.940 4188278.870 30.960
1417290.270 4188278.880 30.950
1417291.600 4188278.880 30.930
1417292.910 4188278.890 30.930
1417294.260 4188278.890 30.910
1417295.580 4188278.900 30.920
1417297.000 4188278.830 30.450
1417298.860 4188278.410 27.950
1417300.170 4188278.430 28.010
1417301.510 4188278.430 28.000
1417302.580 4188278.630 29.120
1417303.840 4188278.700 29.480
1417304.780 4188279.010 31.210
1417295.780 4188277.910 28.200
1417293.790 4188278.270 30.330
1417292.720 4188277.880 28.120
1417290.650 4188278.310 30.660
1417289.070 4188278.330 30.870
1417287.520 4188278.330 30.920
1417285.980 4188278.320 30.940
1417284.450 4188278.320 30.960
1417282.400 4188278.730 33.430
1417281.360 4188278.300 31.030
1417279.820 4188278.310 31.100
1417277.380 4188279.040 35.430
1417265.520 4188278.620 33.510
1417264.230 4188278.410 32.280
1417262.710 4188278.390 32.250
1417261.920 4188277.720 28.400
1417262.610 4188277.100 24.850
1417262.620 4188275.740 16.960
1417262.470 4188274.600 16.980
1417262.290 4188275.930 24.680
1417270.090 4188277.190 31.670
1417272.710 4188277.200 31.700
1417275.370 4188277.210 31.610
1417278.730 4188276.600 28.000
1417279.610 4188276.980 30.130
1417281.360 4188276.610 27.990
1417275.340 4188276.780 31.940
1417272.290 4188276.720 31.760
1417262.130 4188276.090 28.520
1417262.790 4188275.500 25.090
1417262.480 4188274.960 28.580
1417333.760 4188282.000 10.440
1417333.630 4188280.700 10.550
1417332.730 4188279.800 9.040
1417333.270 4188281.630 10.490
1417333.410 4188283.110 10.390
1417332.880 4188291.650 8.710
1417332.350 4188286.470 9.010
1417332.140 4188285.120 8.800
1417331.740 4188281.230 8.980
1417331.090 4188279.730 8.980
1417331.490 4188281.460 9.870
1417331.790 4188285.900 8.960
1417332.920 4188306.810 8.440
1417332.820 4188305.510 8.630
1417332.710 4188304.240 8.820
1417332.010 4188298.910 8.470
1417331.560 4188295.000 8.530
1417331.420 4188293.700 8.580
1417331.090 4188289.840 9.070
1417331.100 4188288.650 9.760
1417331.160 4188287.500 10.630
1417331.270 4188286.390 11.680
1417331.510 4188285.380 13.270
1417330.450 4188284.570 9.000
1417331.460 4188284.130 13.700
1417331.340 4188282.840 13.840
1417331.370 4188281.670 14.550
1417331.410 4188280.930 17.330
1417331.480 4188282.380 16.940
1417331.140 4188284.920 14.110
1417331.260 4188286.410 13.840
1417331.130 4188287.700 12.590
1417330.690 4188288.770 10.090
1417330.990 4188290.390 10.570
1417330.950 4188291.770 9.720
1417331.030 4188294.640 8.590
1417332.090 4188303.860 8.570
1417332.330 4188305.440 8.810
1417332.450 4188306.940 8.550
1417332.570 4188308.420 8.320
1417332.880 4188311.470 8.180
1417332.400 4188310.920 11.210
1417331.630 4188309.170 8.680
1417331.420 4188307.830 8.420
1417331.210 4188306.480 8.210
1417330.780 4188301.390 8.930
1417330.610 4188300.080 8.860
1417330.630 4188298.900 9.520
1417330.440 4188297.570 9.370
1417330.600 4188296.490 10.660
1417330.860 4188295.500 12.340
1417330.000 4188294.860 8.850
1417330.960 4188294.380 13.370
1417330.980 4188293.220 14.090
1417330.780 4188291.880 13.870
1417331.270 4188291.050 16.510
1417331.230 4188289.840 16.920
1417331.140 4188288.580 17.160
1417331.150 4188287.410 17.830
1417331.140 4188286.220 18.410
1417331.550 4188285.340 20.700
1417331.470 4188284.110 20.970
1417331.350 4188282.810 21.120
1417331.390 4188281.660 21.850
1417331.670 4188281.510 25.550
1417331.060 4188282.400 22.360
1417331.220 4188283.910 22.280
1417331.150 4188285.240 21.300
1417331.250 4188286.710 20.980
1417331.350 4188288.160 20.650
1417330.780 4188289.120 17.640
1417330.990 4188290.670 17.760
1417330.990 4188292.060 17.090
1417331.100 4188293.530 16.800
1417330.580 4188294.530 13.960
1417331.410 4188296.550 16.610
1417331.530 4188298.020 16.380
1417330.000 4188296.890 10.170
1417330.550 4188298.700 11.690
1417330.170 4188299.820 9.460
1417330.530 4188301.480 10.190
1417330.290 4188302.710 8.500
1417330.520 4188304.270 8.680
1417330.110 4188310.390 8.690
1417330.040 4188309.130 9.050
1417330.090 4188307.950 9.860
1417330.330 4188306.930 11.470
1417330.260 4188305.660 11.800
1417331.220 4188305.170 16.400
1417330.310 4188304.500 12.620
1417331.130 4188303.890 16.640
1417330.210 4188303.210 12.870
1417330.980 4188302.570 16.630
1417330.850 4188301.280 16.710
1417330.620 4188299.920 16.440
1417331.460 4188299.340 20.460
1417330.490 4188298.620 16.490
1417331.360 4188298.050 20.680
1417330.270 4188297.240 16.210
1417331.230 4188296.770 20.770
1417331.070 4188295.450 20.770
1417330.940 4188294.160 20.870
1417330.860 4188292.900 21.170
1417330.740 4188291.610 21.290
1417330.880 4188290.530 22.480
1417330.500 4188289.020 21.500
1417331.290 4188288.440 25.390
1417331.200 4188287.180 25.630
1417331.080 4188285.910 25.800
1417331.010 4188284.650 26.140
1417330.950 4188283.400 26.520
1417330.800 4188282.100 26.550
1417330.670 4188280.800 26.590
1417330.200 4188280.750 26.530
1417330.840 4188282.640 28.420
1417330.490 4188283.760 26.300
1417330.680 4188285.290 26.310
1417330.850 4188286.830 26.270
1417330.950 4188288.300 25.970
1417331.040 4188289.760 25.600
1417331.190 4188291.290 25.540
1417330.350 4188292.050 21.410
1417330.690 4188293.710 22.040
1417330.680 4188295.090 21.270
1417330.710 4188296.530 20.670
1417330.900 4188298.060 20.710
1417331.040 4188299.580 20.570
1417331.230 4188301.120 20.650
1417330.200 4188300.350 16.400
1417330.490 4188301.980 16.850
1417330.550 4188303.420 16.380
1417330.820 4188305.050 16.780
1417330.930 4188306.520 16.500
1417331.090 4188308.070 16.410
1417330.040 4188307.300 12.100
1417330.140 4188308.780 11.810
1417330.150 4188310.210 11.080
1417329.620 4188311.250 8.220
1417328.540 4188311.420 8.150
1417329.790 4188311.130 13.930
1417330.350 4188310.330 16.850
1417331.080 4188309.650 20.450
1417330.060 4188308.910 16.300
1417330.950 4188308.370 20.550
1417329.960 4188307.640 16.450
1417330.830 4188307.070 20.640
1417330.670 4188305.760 20.600
1417330.580 4188304.490 20.900
1417330.420 4188303.190 20.870
1417330.410 4188301.990 21.440
1417330.960 4188301.200 24.300
1417330.830 4188299.920 24.400
1417330.670 4188298.580 24.330
1417330.930 4188297.600 26.010
1417330.800 4188296.310 26.130
1417330.630 4188294.990 26.030
1417330.540 4188293.740 26.290
1417330.420 4188292.450 26.440
1417330.190 4188291.100 26.130
1417330.030 4188289.770 26.070
1417329.870 4188288.460 26.040
1417329.740 4188287.170 26.130
1417329.600 4188285.880 26.210
1417329.470 4188284.600 26.280
1417329.310 4188283.280 26.300
1417329.120 4188281.950 26.130
1417329.060 4188280.710 26.460
1417328.570 4188280.830 26.420
1417328.680 4188282.310 26.220
1417328.910 4188283.870 26.410
1417329.060 4188285.370 26.330
1417329.230 4188286.890 26.280
1417329.390 4188288.390 26.200
1417329.560 4188289.910 26.160
1417329.700 4188291.420 26.060
1417330.440 4188293.350 28.330
1417330.080 4188294.490 26.160
1417330.330 4188296.050 26.430
1417330.540 4188297.610 26.580
1417330.670 4188299.080 26.370
1417330.810 4188300.600 26.280
1417330.560 4188301.790 24.530
1417330.710 4188303.310 24.400
1417330.820 4188304.770 24.120
1417330.060 4188305.630 20.330
1417330.300 4188307.180 20.550
1417330.410 4188308.680 20.340
1417330.640 4188310.240 20.550
1417329.910 4188311.130 16.830
1417327.990 4188311.150 8.230
1417327.750 4188311.090 12.480
1417329.680 4188311.270 21.040
1417330.350 4188310.560 24.410
1417330.220 4188309.260 24.500
1417330.480 4188308.260 26.180
1417330.370 4188306.980 26.320
1417330.260 4188305.690 26.510
1417330.080 4188304.370 26.390
1417329.990 4188303.110 26.630
1417330.150 4188302.050 27.950
1417330.060 4188300.790 28.200
1417329.860 4188299.440 27.990
1417329.750 4188298.170 28.140
1417329.270 4188296.610 26.810
1417329.030 4188295.250 26.480
1417328.830 4188293.910 26.290
1417328.690 4188292.610 26.330
1417328.560 4188291.330 26.430
1417328.410 4188290.000 26.480
1417328.300 4188288.720 26.580
1417328.140 4188287.420 26.560
1417328.010 4188286.130 26.680
1417327.880 4188284.840 26.750
1417327.670 4188283.480 26.560
1417327.430 4188282.120 26.190
1417327.320 4188280.840 26.390
1417326.870 4188280.880 26.350
1417327.040 4188282.400 26.320
1417327.330 4188284.010 26.790
1417327.530 4188285.550 26.850
1417327.680 4188287.050 26.740
1417327.850 4188288.580 26.710
1417328.000 4188290.080 26.640
1417328.150 4188291.600 26.530
1417328.320 4188293.120 26.500
1417329.030 4188295.060 28.660
1417328.800 4188296.260 27.010
1417328.950 4188297.780 26.880
1417329.120 4188299.290 26.880
1417329.630 4188301.070 28.210
1417329.440 4188302.320 26.730
1417329.590 4188303.840 26.610
1417329.750 4188305.340 26.550
1417330.130 4188307.020 27.340
1417330.110 4188308.400 26.580
1417330.180 4188309.860 26.140
1417329.940 4188311.080 24.470
1417328.170 4188311.220 16.490
1417327.310 4188310.600 12.940
1417326.180 4188311.260 12.410
1417325.170 4188310.550 8.300
1417327.870 4188311.280 20.020
1417329.190 4188309.840 26.620
1417329.060 4188308.550 26.700
1417329.290 4188307.540 28.270
1417328.780 4188305.950 26.780
1417328.650 4188304.670 26.870
1417328.510 4188303.390 26.920
1417328.360 4188302.090 26.940
1417328.210 4188300.800 26.950
1417328.070 4188299.490 27.040
1417327.950 4188298.220 27.120
1417327.820 4188296.930 27.230
1417328.010 4188295.880 28.600
1417327.390 4188294.230 26.710
1417327.260 4188292.930 26.800
1417327.110 4188291.640 26.830
1417326.980 4188290.340 26.930
1417326.840 4188289.050 26.970
1417326.710 4188287.760 27.030
1417326.570 4188286.480 27.120
1417326.430 4188285.190 27.160
1417326.220 4188283.820 26.950
1417325.910 4188282.400 26.290
1417325.700 4188281.060 26.070
1417325.210 4188281.050 26.090
1417325.460 4188282.630 26.390
1417325.780 4188284.260 26.970
1417326.040 4188285.840 27.290
1417326.200 4188287.360 27.220
1417326.360 4188288.850 27.120
1417326.510 4188290.370 27.060
1417326.660 4188291.870 26.960
1417326.830 4188293.380 26.910
1417327.010 4188294.920 26.930
1417327.310 4188296.530 27.390
1417327.450 4188298.030 27.240
1417327.600 4188299.530 27.160
1417327.760 4188301.050 27.100
1417327.930 4188302.550 27.070
1417328.090 4188304.090 27.020
1417328.250 4188305.570 26.910
1417328.410 4188307.100 26.840
1417328.560 4188308.600 26.800
1417328.700 4188310.110 26.640
1417328.370 4188311.250 24.550
1417326.090 4188311.030 14.530
1417324.680 4188311.420 8.010
1417324.480 4188310.970 12.380
1417326.210 4188311.000 20.120
1417327.540 4188309.580 26.790
1417327.450 4188308.330 27.040
1417327.310 4188307.030 27.090
1417327.190 4188305.740 27.200
1417327.060 4188304.460 27.290
1417326.920 4188303.170 27.360
1417326.770 4188301.870 27.350
1417326.620 4188300.570 27.390
1417326.490 4188299.280 27.450
1417326.360 4188298.010 27.580
1417326.240 4188296.700 27.680
1417326.050 4188295.380 27.540
1417325.820 4188294.020 27.220
1417325.680 4188292.720 27.250
1417325.550 4188291.440 27.340
1417325.410 4188290.130 27.420
1417325.270 4188288.850 27.460
1417325.130 4188287.550 27.500
1417324.990 4188286.260 27.560
1417324.730 4188284.880 27.120
1417324.460 4188283.470 26.670
1417324.200 4188282.090 26.220
1417324.050 4188280.780 26.260
1417323.570 4188280.330 26.540
1417323.660 4188281.790 26.140
1417323.960 4188283.390 26.660
1417324.280 4188285.020 27.230
1417324.570 4188286.610 27.680
1417324.720 4188288.110 27.580
1417324.880 4188289.610 27.550
1417325.040 4188291.110 27.470
1417325.200 4188292.620 27.420
1417325.370 4188294.120 27.370
1417325.670 4188295.730 27.890
1417325.810 4188297.210 27.730
1417325.960 4188298.720 27.650
1417326.110 4188300.220 27.560
1417326.270 4188301.720 27.490
1417326.440 4188303.220 27.440
1417326.610 4188304.730 27.430
1417326.750 4188306.210 27.260
1417326.880 4188307.700 27.140
1417326.980 4188309.160 26.820
1417325.700 4188311.010 20.160
1417324.830 4188310.390 16.610
1417323.070 4188311.920 7.940
1417321.960 4188310.460 8.840
1417324.500 4188311.070 19.880
1417325.870 4188309.670 26.730
1417325.780 4188308.420 26.970
1417325.710 4188307.180 27.300
1417325.640 4188305.910 27.630
1417325.510 4188304.630 27.700
1417325.370 4188303.340 27.780
1417325.220 4188302.050 27.800
1417325.070 4188300.750 27.820
1417324.940 4188299.450 27.910
1417324.810 4188298.170 27.990
1417324.690 4188296.870 28.110
1417324.540 4188295.580 28.120
1417324.240 4188294.170 27.540
1417324.070 4188292.850 27.470
1417323.900 4188291.540 27.390
1417323.750 4188290.220 27.410
1417323.660 4188288.970 27.650
1417323.580 4188287.720 27.930
1417323.370 4188286.380 27.690
1417323.090 4188284.980 27.200
1417322.840 4188283.590 26.810
1417322.550 4188282.180 26.250
1417322.350 4188280.830 26.100
1417321.900 4188280.320 26.390
1417322.040 4188281.830 26.230
1417322.390 4188283.480 26.940
1417322.660 4188285.090 27.280
1417322.950 4188286.690 27.750
1417323.150 4188288.240 27.880
1417323.240 4188289.690 27.500
1417323.390 4188291.190 27.400
1417321.970 4188290.110 21.580
1417323.570 4188292.720 27.400
1417323.750 4188294.250 27.420
1417324.120 4188295.910 28.180
1417324.300 4188297.440 28.240
1417324.440 4188298.940 28.080
1417324.610 4188300.450 28.030
1417324.760 4188301.970 27.910
1417324.930 4188303.480 27.880
1417325.100 4188305.000 27.840
1417325.170 4188306.460 27.460
1417325.260 4188307.920 27.090
1417325.350 4188309.380 26.730
1417323.200 4188310.630 16.500
1417321.310 4188310.680 8.000
1417320.270 4188311.750 7.910
1417322.110 4188310.670 16.700
1417324.250 4188309.830 26.700
1417324.160 4188308.580 26.930
1417324.090 4188307.350 27.290
1417324.020 4188306.090 27.620
1417323.960 4188304.870 27.950
1417323.860 4188303.610 28.180
1417322.890 4188298.150 26.730
1417322.680 4188296.800 26.520
1417322.590 4188295.540 26.720
1417320.020 4188292.420 16.870
1417319.950 4188291.180 17.200
1417320.820 4188290.660 21.380
1417322.110 4188290.430 27.300
1417322.040 4188289.200 27.620
1417321.960 4188287.960 27.930
1417321.770 4188286.630 27.730
1417321.520 4188285.250 27.340
1417321.260 4188283.850 26.920
1417320.990 4188282.470 26.440
1417320.720 4188281.070 25.980
1417320.710 4188279.870 26.530
1417320.220 4188280.780 26.040
1417320.960 4188282.750 28.300
1417320.820 4188284.020 27.040
1417321.130 4188285.660 27.530
1417321.400 4188287.260 27.950
