1.41731e+06 4.18828e+06 28.3 0 0 0
1.41731e+06 4.18829e+06 28.27 0 0 0
1.41731e+06 4.18829e+06 27.84 0 0 0
1.41731e+06 4.18829e+06 27.43 0 0 0
1.41731e+06 4.18829e+06 22.83 0 0 0
1.41731e+06 4.18829e+06 22.84 0 0 0
1.41731e+06 4.18829e+06 22.69 0 0 0
1.41731e+06 4.18829e+06 23.05 0 0 0
1.41731e+06 4.1883e+06 23.51 0 0 0
1.41731e+06 4.1883e+06 23.9 0 0 0
1.41731e+06 4.1883e+06 24.31 0 0 0
1.41731e+06 4.1883e+06 24.8 0 0 0
1.41731e+06 4.1883e+06 25.08 0 0 0
1.41731e+06 4.1883e+06 24.65 0 0 0
1.41731e+06 4.18831e+06 24.28 0 0 0
1.41731e+06 4.18831e+06 23.96 0 0 0
1.41731e+06 4.18831e+06 23.62 0 0 0
1.41731e+06 4.18831e+06 19.65 0 0 0
1.41731e+06 4.18831e+06 11.9 0 0 0
1.41731e+06 4.18831e+06 12.25 0 0 0
1.41731e+06 4.18831e+06 19.6 0 0 0
1.41731e+06 4.18831e+06 23.51 0 0 0
1.41731e+06 4.18831e+06 23.81 0 0 0
1.41731e+06 4.18831e+06 24.11 0 0 0
1.41731e+06 4.18831e+06 24.42 0 0 0
1.41731e+06 4.1883e+06 24.74 0 0 0
1.41731e+06 4.1883e+06 25.1 0 0 0
1.41731e+06 4.1883e+06 24.77 0 0 0
1.41731e+06 4.1883e+06 24.41 0 0 0
1.41731e+06 4.1883e+06 24.01 0 0 0
1.41731e+06 4.1883e+06 23.67 0 0 0
1.41731e+06 4.1883e+06 23.4 0 0 0
1.41731e+06 4.18829e+06 23 0 0 0
1.41731e+06 4.18829e+06 22.75 0 0 0
1.41731e+06 4.18829e+06 23.02 0 0 0
1.41731e+06 4.18829e+06 23.11 0 0 0
1.41731e+06 4.18829e+06 27.19 0 0 0
1.41731e+06 4.18829e+06 27.57 0 0 0
1.41731e+06 4.18829e+06 27.96 0 0 0
1.41731e+06 4.18829e+06 28.36 0 0 0
1.41731e+06 4.18829e+06 28.83 0 0 0
1.41731e+06 4.18828e+06 29.15 0 0 0
1.41731e+06 4.18828e+06 30.68 0 0 0
1.41731e+06 4.18828e+06 32.79 0 0 0
1.41731e+06 4.18828e+06 31.49 0 0 0
1.41731e+06 4.18828e+06 29.35 0 0 0
1.41731e+06 4.18828e+06 31.38 0 0 0
1.41731e+06 4.18828e+06 31.75 0 0 0
1.41731e+06 4.18828e+06 32.82 0 0 0
1.41731e+06 4.18828e+06 31.8 0 0 0
1.41731e+06 4.18829e+06 30.51 0 0 0
1.41731e+06 4.18829e+06 29.21 0 0 0
1.41731e+06 4.18829e+06 28.15 0 0 0
1.41731e+06 4.18829e+06 27.48 0 0 0
1.41731e+06 4.18829e+06 23.53 0 0 0
1.41731e+06 4.18829e+06 14.79 0 0 0
1.41731e+06 4.18829e+06 23.32 0 0 0
1.41731e+06 4.18829e+06 22.74 0 0 0
1.41731e+06 4.18829e+06 23.06 0 0 0
1.41731e+06 4.1883e+06 23.45 0 0 0
1.41731e+06 4.1883e+06 23.86 0 0 0
1.41731e+06 4.1883e+06 24.26 0 0 0
1.41731e+06 4.1883e+06 24.72 0 0 0
1.41731e+06 4.1883e+06 25.08 0 0 0
1.41731e+06 4.1883e+06 24.66 0 0 0
1.41731e+06 4.18831e+06 24.31 0 0 0
1.41731e+06 4.18831e+06 23.96 0 0 0
1.41731e+06 4.18831e+06 23.6 0 0 0
1.41731e+06 4.18831e+06 23.14 0 0 0
1.41731e+06 4.18831e+06 19.67 0 0 0
1.41731e+06 4.18831e+06 12.17 0 0 0
1.41731e+06 4.18831e+06 8.69 0 0 0
1.41731e+06 4.18831e+06 11.68 0 0 0
1.41731e+06 4.18831e+06 19.25 0 0 0
1.41731e+06 4.18831e+06 23.46 0 0 0
1.41731e+06 4.18831e+06 23.77 0 0 0
1.41731e+06 4.18831e+06 24.07 0 0 0
1.41731e+06 4.18831e+06 24.39 0 0 0
1.41731e+06 4.1883e+06 24.7 0 0 0
1.41731e+06 4.1883e+06 25.05 0 0 0
1.41731e+06 4.1883e+06 24.75 0 0 0
1.41731e+06 4.1883e+06 24.42 0 0 0
1.41731e+06 4.1883e+06 24.12 0 0 0
1.41731e+06 4.1883e+06 23.58 0 0 0
1.41731e+06 4.1883e+06 21.5 0 0 0
1.41731e+06 4.18829e+06 21.29 0 0 0
1.41731e+06 4.18829e+06 21.11 0 0 0
1.41731e+06 4.18829e+06 20.87 0 0 0
1.4173e+06 4.18829e+06 15.23 0 0 0
1.41731e+06 4.18829e+06 19.76 0 0 0
1.41731e+06 4.18829e+06 23.29 0 0 0
1.41731e+06 4.18829e+06 31.48 0 0 0
1.41731e+06 4.18829e+06 31.92 0 0 0
1.41731e+06 4.18829e+06 32.33 0 0 0
1.41731e+06 4.18828e+06 32.71 0 0 0
1.41731e+06 4.18828e+06 32.42 0 0 0
1.41731e+06 4.18828e+06 32 0 0 0
1.41731e+06 4.18828e+06 31.57 0 0 0
1.41731e+06 4.18828e+06 31.37 0 0 0
1.41731e+06 4.18828e+06 31.79 0 0 0
1.41731e+06 4.18828e+06 32.36 0 0 0
1.41731e+06 4.18828e+06 32.75 0 0 0
1.41731e+06 4.18829e+06 32.29 0 0 0
1.41731e+06 4.18829e+06 31.84 0 0 0
1.41731e+06 4.18829e+06 28.69 0 0 0
1.41731e+06 4.18829e+06 22.87 0 0 0
1.41731e+06 4.18829e+06 18.04 0 0 0
1.41731e+06 4.18829e+06 21 0 0 0
1.41731e+06 4.18829e+06 21.12 0 0 0
1.41731e+06 4.18829e+06 21.36 0 0 0
1.41731e+06 4.1883e+06 21.63 0 0 0
1.41731e+06 4.1883e+06 21.86 0 0 0
1.41731e+06 4.1883e+06 25.02 0 0 0
1.41731e+06 4.1883e+06 24.76 0 0 0
1.41731e+06 4.1883e+06 25.09 0 0 0
1.41731e+06 4.1883e+06 24.65 0 0 0
1.41731e+06 4.18831e+06 24.26 0 0 0
1.41731e+06 4.18831e+06 23.94 0 0 0
1.41731e+06 4.18831e+06 23.55 0 0 0
1.41731e+06 4.18831e+06 19.67 0 0 0
1.41731e+06 4.18831e+06 11.85 0 0 0
1.4173e+06 4.18831e+06 10.29 0 0 0
1.41731e+06 4.18831e+06 17.62 0 0 0
1.41731e+06 4.18831e+06 23.36 0 0 0
1.41731e+06 4.18831e+06 23.62 0 0 0
1.41731e+06 4.18831e+06 23.95 0 0 0
1.41731e+06 4.18831e+06 25.02 0 0 0
1.41731e+06 4.1883e+06 24.77 0 0 0
1.41731e+06 4.1883e+06 24.9 0 0 0
1.4173e+06 4.1883e+06 14.64 0 0 0
1.4173e+06 4.1883e+06 15.09 0 0 0
1.41731e+06 4.1883e+06 22.07 0 0 0
1.41731e+06 4.1883e+06 21.84 0 0 0
1.41731e+06 4.1883e+06 21.62 0 0 0
1.41731e+06 4.18829e+06 21.38 0 0 0
1.4173e+06 4.18829e+06 21.09 0 0 0
1.4173e+06 4.18829e+06 20.92 0 0 0
1.4173e+06 4.18829e+06 21.79 0 0 0
1.4173e+06 4.18829e+06 23.29 0 0 0
1.41731e+06 4.18829e+06 26.35 0 0 0
1.41731e+06 4.18829e+06 28.95 0 0 0
1.41731e+06 4.18829e+06 31.77 0 0 0
1.41731e+06 4.18829e+06 32.14 0 0 0
1.41731e+06 4.18828e+06 32.58 0 0 0
1.41731e+06 4.18828e+06 32.52 0 0 0
1.41731e+06 4.18828e+06 32.12 0 0 0
1.41731e+06 4.18828e+06 31.7 0 0 0
1.41731e+06 4.18828e+06 31.35 0 0 0
1.4173e+06 4.18828e+06 31.54 0 0 0
1.41731e+06 4.18828e+06 32.04 0 0 0
1.41731e+06 4.18828e+06 32.49 0 0 0
1.41731e+06 4.18828e+06 32.56 0 0 0
1.41731e+06 4.18829e+06 32.08 0 0 0
1.41731e+06 4.18829e+06 31.63 0 0 0
1.41731e+06 4.18829e+06 28.68 0 0 0
1.4173e+06 4.18829e+06 25.85 0 0 0
1.4173e+06 4.18829e+06 24.2 0 0 0
1.4173e+06 4.18829e+06 20.95 0 0 0
1.4173e+06 4.18829e+06 21.24 0 0 0
1.4173e+06 4.18829e+06 21.45 0 0 0
1.4173e+06 4.1883e+06 21.75 0 0 0
1.41731e+06 4.1883e+06 22.02 0 0 0
1.4173e+06 4.1883e+06 15.36 0 0 0
1.4173e+06 4.1883e+06 14.66 0 0 0
1.41731e+06 4.1883e+06 22.62 0 0 0
1.41731e+06 4.1883e+06 22.22 0 0 0
1.41731e+06 4.18831e+06 25.16 0 0 0
1.41731e+06 4.18831e+06 23.81 0 0 0
1.41731e+06 4.18831e+06 23.39 0 0 0
1.41731e+06 4.18831e+06 17.18 0 0 0
1.4173e+06 4.18831e+06 7.67 0 0 0
1.4173e+06 4.18831e+06 12.74 0 0 0
1.4173e+06 4.18831e+06 20.88 0 0 0
1.4173e+06 4.18831e+06 21.3 0 0 0
1.4173e+06 4.18831e+06 21.56 0 0 0
1.4173e+06 4.18831e+06 21.85 0 0 0
1.4173e+06 4.1883e+06 22.14 0 0 0
1.4173e+06 4.1883e+06 22.52 0 0 0
1.4173e+06 4.1883e+06 14.69 0 0 0
1.4173e+06 4.1883e+06 14.8 0 0 0
1.4173e+06 4.1883e+06 18.94 0 0 0
1.4173e+06 4.1883e+06 22.03 0 0 0
1.4173e+06 4.1883e+06 21.8 0 0 0
1.4173e+06 4.1883e+06 21.48 0 0 0
1.4173e+06 4.18829e+06 21.28 0 0 0
1.4173e+06 4.18829e+06 21.02 0 0 0
1.4173e+06 4.18829e+06 21.86 0 0 0
1.4173e+06 4.18829e+06 28.65 0 0 0
1.4173e+06 4.18829e+06 30.72 0 0 0
1.4173e+06 4.18829e+06 30.98 0 0 0
1.4173e+06 4.18829e+06 31.61 0 0 0
1.4173e+06 4.18829e+06 31.98 0 0 0
1.4173e+06 4.18829e+06 32.33 0 0 0
1.4173e+06 4.18828e+06 32.82 0 0 0
1.4173e+06 4.18828e+06 32.37 0 0 0
1.4173e+06 4.18828e+06 31.97 0 0 0
1.4173e+06 4.18828e+06 31.54 0 0 0
1.4173e+06 4.18828e+06 31.42 0 0 0
1.4173e+06 4.18828e+06 31.88 0 0 0
1.4173e+06 4.18828e+06 32.4 0 0 0
1.4173e+06 4.18828e+06 32.73 0 0 0
1.4173e+06 4.18829e+06 32.26 0 0 0
1.4173e+06 4.18829e+06 31.75 0 0 0
1.4173e+06 4.18829e+06 31.42 0 0 0
1.4173e+06 4.18829e+06 31.27 0 0 0
1.4173e+06 4.18829e+06 29.02 0 0 0
1.4173e+06 4.18829e+06 20.94 0 0 0
1.4173e+06 4.18829e+06 21.14 0 0 0
1.4173e+06 4.18829e+06 21.4 0 0 0
1.4173e+06 4.1883e+06 21.7 0 0 0
1.4173e+06 4.1883e+06 22 0 0 0
1.4173e+06 4.1883e+06 18.96 0 0 0
1.4173e+06 4.1883e+06 14.99 0 0 0
1.4173e+06 4.1883e+06 22.74 0 0 0
1.4173e+06 4.1883e+06 14.8 0 0 0
1.4173e+06 4.1883e+06 22.33 0 0 0
1.4173e+06 4.1883e+06 21.94 0 0 0
1.4173e+06 4.18831e+06 21.6 0 0 0
1.4173e+06 4.18831e+06 21.26 0 0 0
1.4173e+06 4.18831e+06 20.86 0 0 0
1.4173e+06 4.18831e+06 11.69 0 0 0
1.4173e+06 4.18831e+06 7.69 0 0 0
1.4173e+06 4.18831e+06 11.74 0 0 0
1.4173e+06 4.18831e+06 8.13 0 0 0
1.4173e+06 4.18831e+06 20.76 0 0 0
1.4173e+06 4.18831e+06 21.21 0 0 0
1.4173e+06 4.18831e+06 21.45 0 0 0
1.4173e+06 4.18831e+06 21.79 0 0 0
1.4173e+06 4.1883e+06 22.13 0 0 0
1.4173e+06 4.1883e+06 22.48 0 0 0
1.4173e+06 4.1883e+06 22.75 0 0 0
1.4173e+06 4.1883e+06 16.33 0 0 0
1.4173e+06 4.1883e+06 17.72 0 0 0
1.4173e+06 4.1883e+06 18.64 0 0 0
1.4173e+06 4.1883e+06 22.09 0 0 0
1.4173e+06 4.1883e+06 21.85 0 0 0
1.4173e+06 4.1883e+06 21.48 0 0 0
1.4173e+06 4.18829e+06 21.3 0 0 0
1.4173e+06 4.18829e+06 21.08 0 0 0
1.4173e+06 4.18829e+06 20.98 0 0 0
1.4173e+06 4.18829e+06 10.01 0 0 0
1.4173e+06 4.18829e+06 27.82 0 0 0
1.4173e+06 4.18829e+06 31.1 0 0 0
1.4173e+06 4.18829e+06 31.54 0 0 0
1.4173e+06 4.18829e+06 31.93 0 0 0
1.4173e+06 4.18829e+06 32.33 0 0 0
1.4173e+06 4.18828e+06 32.75 0 0 0
1.4173e+06 4.18828e+06 32.62 0 0 0
1.4173e+06 4.18828e+06 33.58 0 0 0
1.4173e+06 4.18828e+06 33.59 0 0 0
1.4173e+06 4.18828e+06 28.14 0 0 0
1.4173e+06 4.18828e+06 28.31 0 0 0
1.4173e+06 4.18828e+06 31.07 0 0 0
1.4173e+06 4.18828e+06 33.26 0 0 0
1.4173e+06 4.18828e+06 32.09 0 0 0
1.4173e+06 4.18829e+06 32.94 0 0 0
1.4173e+06 4.18829e+06 32.12 0 0 0
1.4173e+06 4.18829e+06 31.15 0 0 0
1.4173e+06 4.18829e+06 30.82 0 0 0
1.4173e+06 4.18829e+06 30.62 0 0 0
1.4173e+06 4.18829e+06 12.47 0 0 0
1.4173e+06 4.18829e+06 21.02 0 0 0
1.4173e+06 4.18829e+06 21.34 0 0 0
1.4173e+06 4.1883e+06 21.63 0 0 0
1.4173e+06 4.1883e+06 21.94 0 0 0
1.4173e+06 4.1883e+06 22.12 0 0 0
1.4173e+06 4.1883e+06 20.47 0 0 0
1.4173e+06 4.1883e+06 22.85 0 0 0
1.4173e+06 4.1883e+06 18.64 0 0 0
1.4173e+06 4.1883e+06 22.45 0 0 0
1.4173e+06 4.1883e+06 22.07 0 0 0
1.4173e+06 4.18831e+06 21.65 0 0 0
1.4173e+06 4.18831e+06 21.27 0 0 0
1.4173e+06 4.18831e+06 20.96 0 0 0
1.4173e+06 4.18831e+06 11.84 0 0 0
1.4173e+06 4.18831e+06 7.86 0 0 0
1.4173e+06 4.18831e+06 10.95 0 0 0
1.4173e+06 4.18831e+06 14.29 0 0 0
1.4173e+06 4.18831e+06 21 0 0 0
1.4173e+06 4.18831e+06 21.28 0 0 0
1.4173e+06 4.18831e+06 21.62 0 0 0
1.4173e+06 4.18831e+06 21.9 0 0 0
1.4173e+06 4.1883e+06 22.19 0 0 0
1.4173e+06 4.1883e+06 22.52 0 0 0
1.4173e+06 4.1883e+06 22.69 0 0 0
1.4173e+06 4.1883e+06 22.52 0 0 0
1.4173e+06 4.1883e+06 22.25 0 0 0
1.4173e+06 4.1883e+06 22.02 0 0 0
1.4173e+06 4.1883e+06 21.72 0 0 0
1.4173e+06 4.18829e+06 21.49 0 0 0
1.4173e+06 4.18829e+06 21.2 0 0 0
1.4173e+06 4.18829e+06 21.02 0 0 0
1.4173e+06 4.18829e+06 12.54 0 0 0
1.4173e+06 4.18829e+06 19.19 0 0 0
1.4173e+06 4.18829e+06 27.27 0 0 0
1.4173e+06 4.18829e+06 30.97 0 0 0
1.4173e+06 4.18829e+06 33.11 0 0 0
1.4173e+06 4.18829e+06 31.76 0 0 0
1.4173e+06 4.18829e+06 32.18 0 0 0
1.4173e+06 4.18828e+06 32.03 0 0 0
1.4173e+06 4.18828e+06 31.61 0 0 0
1.4173e+06 4.18828e+06 31.21 0 0 0
1.4173e+06 4.18828e+06 30.83 0 0 0
1.4173e+06 4.18828e+06 28.05 0 0 0
1.4173e+06 4.18828e+06 31.14 0 0 0
1.4173e+06 4.18828e+06 31.55 0 0 0
1.4173e+06 4.18828e+06 32.02 0 0 0
1.4173e+06 4.18829e+06 32.11 0 0 0
1.4173e+06 4.18829e+06 31.64 0 0 0
1.4173e+06 4.18829e+06 31.17 0 0 0
1.4173e+06 4.18829e+06 28.66 0 0 0
1.4173e+06 4.18829e+06 20.7 0 0 0
1.4173e+06 4.18829e+06 12.51 0 0 0
1.4173e+06 4.18829e+06 21.1 0 0 0
1.4173e+06 4.18829e+06 21.36 0 0 0
1.4173e+06 4.1883e+06 21.65 0 0 0
1.4173e+06 4.1883e+06 21.94 0 0 0
1.4173e+06 4.1883e+06 22.24 0 0 0
1.4173e+06 4.1883e+06 22.57 0 0 0
1.4173e+06 4.1883e+06 22.74 0 0 0
1.4173e+06 4.1883e+06 22.42 0 0 0
1.4173e+06 4.1883e+06 22.02 0 0 0
1.4173e+06 4.18831e+06 21.71 0 0 0
1.4173e+06 4.18831e+06 21.32 0 0 0
1.4173e+06 4.18831e+06 20.94 0 0 0
1.4173e+06 4.18831e+06 12.29 0 0 0
1.4173e+06 4.18831e+06 10.46 0 0 0
1.4173e+06 4.18831e+06 10.64 0 0 0
1.4173e+06 4.18831e+06 12.03 0 0 0
1.4173e+06 4.18831e+06 21 0 0 0
1.4173e+06 4.18831e+06 21.26 0 0 0
1.4173e+06 4.18831e+06 21.53 0 0 0
1.4173e+06 4.18831e+06 21.85 0 0 0
1.4173e+06 4.1883e+06 22.12 0 0 0
1.4173e+06 4.1883e+06 22.4 0 0 0
1.4173e+06 4.1883e+06 22.71 0 0 0
1.4173e+06 4.1883e+06 22.47 0 0 0
1.4173e+06 4.1883e+06 22.23 0 0 0
1.4173e+06 4.1883e+06 22.01 0 0 0
1.4173e+06 4.1883e+06 21.76 0 0 0
1.4173e+06 4.18829e+06 21.57 0 0 0
1.4173e+06 4.18829e+06 22.28 0 0 0
1.4173e+06 4.18829e+06 19.43 0 0 0
1.4173e+06 4.18829e+06 11.31 0 0 0
1.4173e+06 4.18829e+06 17.42 0 0 0
1.4173e+06 4.18829e+06 25.92 0 0 0
1.4173e+06 4.18829e+06 30.88 0 0 0
1.4173e+06 4.18829e+06 31.31 0 0 0
1.4173e+06 4.18829e+06 31.71 0 0 0
1.4173e+06 4.18829e+06 32.13 0 0 0
1.4173e+06 4.18828e+06 32.05 0 0 0
1.4173e+06 4.18828e+06 31.69 0 0 0
1.4173e+06 4.18828e+06 31.21 0 0 0
1.4173e+06 4.18828e+06 30.87 0 0 0
1.4173e+06 4.18828e+06 30.96 0 0 0
1.4173e+06 4.18828e+06 31.43 0 0 0
1.4173e+06 4.18828e+06 31.86 0 0 0
1.4173e+06 4.18828e+06 32.29 0 0 0
1.4173e+06 4.18829e+06 31.74 0 0 0
1.4173e+06 4.18829e+06 31.29 0 0 0
1.4173e+06 4.18829e+06 30.78 0 0 0
1.4173e+06 4.18829e+06 23.93 0 0 0
1.4173e+06 4.18829e+06 14.34 0 0 0
1.4173e+06 4.18829e+06 19.68 0 0 0
1.4173e+06 4.18829e+06 23.02 0 0 0
1.4173e+06 4.18829e+06 21.02 0 0 0
1.4173e+06 4.1883e+06 21.87 0 0 0
1.4173e+06 4.1883e+06 18.61 0 0 0
1.4173e+06 4.1883e+06 22.12 0 0 0
1.4173e+06 4.1883e+06 22.43 0 0 0
1.4173e+06 4.1883e+06 22.68 0 0 0
1.4173e+06 4.1883e+06 22.52 0 0 0
1.4173e+06 4.1883e+06 22.12 0 0 0
1.4173e+06 4.18831e+06 21.78 0 0 0
1.4173e+06 4.18831e+06 21.42 0 0 0
1.4173e+06 4.18831e+06 21.12 0 0 0
1.4173e+06 4.18831e+06 15.4 0 0 0
1.4173e+06 4.18831e+06 11.27 0 0 0
1.4173e+06 4.18831e+06 7.84 0 0 0
1.4173e+06 4.18831e+06 16.61 0 0 0
1.4173e+06 4.18831e+06 21.09 0 0 0
1.4173e+06 4.18831e+06 21.34 0 0 0
1.4173e+06 4.18831e+06 21.65 0 0 0
1.4173e+06 4.1883e+06 21.96 0 0 0
1.4173e+06 4.1883e+06 22.19 0 0 0
1.4173e+06 4.1883e+06 22.55 0 0 0
1.4173e+06 4.1883e+06 22.71 0 0 0
1.4173e+06 4.1883e+06 22.58 0 0 0
1.4173e+06 4.1883e+06 18.85 0 0 0
1.4173e+06 4.1883e+06 18.5 0 0 0
1.4173e+06 4.1883e+06 18.38 0 0 0
1.4173e+06 4.18829e+06 18.53 0 0 0
1.4173e+06 4.18829e+06 18.83 0 0 0
1.4173e+06 4.18829e+06 19.2 0 0 0
1.4173e+06 4.18829e+06 19.68 0 0 0
1.4173e+06 4.18829e+06 17.38 0 0 0
1.4173e+06 4.18829e+06 21.23 0 0 0
1.4173e+06 4.18829e+06 28.63 0 0 0
1.4173e+06 4.18829e+06 31.09 0 0 0
1.4173e+06 4.18829e+06 31.48 0 0 0
1.4173e+06 4.18829e+06 31.84 0 0 0
1.4173e+06 4.18828e+06 32.27 0 0 0
1.4173e+06 4.18828e+06 31.93 0 0 0
1.4173e+06 4.18828e+06 31.49 0 0 0
1.4173e+06 4.18828e+06 31.12 0 0 0
1.4173e+06 4.18828e+06 30.77 0 0 0
1.4173e+06 4.18828e+06 30.86 0 0 0
1.4173e+06 4.18828e+06 31.28 0 0 0
1.4173e+06 4.18828e+06 31.75 0 0 0
1.4173e+06 4.18828e+06 32.2 0 0 0
1.4173e+06 4.18829e+06 31.87 0 0 0
1.4173e+06 4.18829e+06 31.44 0 0 0
1.4173e+06 4.18829e+06 31 0 0 0
1.4173e+06 4.18829e+06 25.55 0 0 0
1.4173e+06 4.18829e+06 20.68 0 0 0
1.4173e+06 4.18829e+06 19.79 0 0 0
1.4173e+06 4.18829e+06 19.22 0 0 0
1.4173e+06 4.18829e+06 18.8 0 0 0
1.4173e+06 4.18829e+06 18.45 0 0 0
1.4173e+06 4.1883e+06 18.29 0 0 0
1.4173e+06 4.1883e+06 18.41 0 0 0
1.4173e+06 4.1883e+06 19.5 0 0 0
1.4173e+06 4.1883e+06 22.73 0 0 0
1.4173e+06 4.1883e+06 22.19 0 0 0
1.4173e+06 4.1883e+06 21.82 0 0 0
1.4173e+06 4.18831e+06 21.5 0 0 0
1.4173e+06 4.18831e+06 21.22 0 0 0
1.4173e+06 4.18831e+06 17.81 0 0 0
1.4173e+06 4.18831e+06 11.34 0 0 0
1.4173e+06 4.18831e+06 7.75 0 0 0
1.4173e+06 4.18831e+06 7.63 0 0 0
1.4173e+06 4.18831e+06 11.64 0 0 0
1.41729e+06 4.18831e+06 7.81 0 0 0
1.4173e+06 4.18831e+06 20.04 0 0 0
1.4173e+06 4.18831e+06 22.36 0 0 0
1.4173e+06 4.18831e+06 22.76 0 0 0
1.4173e+06 4.1883e+06 20.07 0 0 0
1.4173e+06 4.1883e+06 20.42 0 0 0
1.4173e+06 4.1883e+06 20.4 0 0 0
1.4173e+06 4.1883e+06 19.95 0 0 0
1.4173e+06 4.1883e+06 19.56 0 0 0
1.41729e+06 4.1883e+06 11.49 0 0 0
1.41729e+06 4.1883e+06 13.25 0 0 0
1.41729e+06 4.1883e+06 18.38 0 0 0
1.41729e+06 4.18829e+06 18.62 0 0 0
1.41729e+06 4.18829e+06 18.94 0 0 0
1.41729e+06 4.18829e+06 19.3 0 0 0
1.4173e+06 4.18829e+06 23.35 0 0 0
1.4173e+06 4.18829e+06 25.96 0 0 0
1.4173e+06 4.18829e+06 25.76 0 0 0
1.4173e+06 4.18829e+06 30.69 0 0 0
1.4173e+06 4.18829e+06 31.18 0 0 0
1.4173e+06 4.18829e+06 31.58 0 0 0
1.4173e+06 4.18829e+06 32 0 0 0
1.4173e+06 4.18828e+06 32.26 0 0 0
1.4173e+06 4.18828e+06 31.81 0 0 0
1.4173e+06 4.18828e+06 31.38 0 0 0
1.4173e+06 4.18828e+06 30.99 0 0 0
1.41729e+06 4.18828e+06 28.16 0 0 0
1.41729e+06 4.18828e+06 30.95 0 0 0
1.4173e+06 4.18828e+06 31.24 0 0 0
1.4173e+06 4.18828e+06 31.67 0 0 0
1.4173e+06 4.18828e+06 32.15 0 0 0
1.4173e+06 4.18829e+06 31.97 0 0 0
1.4173e+06 4.18829e+06 31.51 0 0 0
1.4173e+06 4.18829e+06 31.04 0 0 0
1.4173e+06 4.18829e+06 28.41 0 0 0
1.4173e+06 4.18829e+06 27.93 0 0 0
1.4173e+06 4.18829e+06 24.98 0 0 0
1.41729e+06 4.18829e+06 19.32 0 0 0
1.41729e+06 4.18829e+06 18.94 0 0 0
1.41729e+06 4.18829e+06 18.56 0 0 0
1.41729e+06 4.1883e+06 18.04 0 0 0
1.41729e+06 4.1883e+06 12.93 0 0 0
1.41729e+06 4.1883e+06 19.47 0 0 0
1.4173e+06 4.1883e+06 19.93 0 0 0
1.4173e+06 4.1883e+06 20.48 0 0 0
1.4173e+06 4.1883e+06 20.29 0 0 0
1.4173e+06 4.18831e+06 19.96 0 0 0
1.4173e+06 4.18831e+06 19.6 0 0 0
1.4173e+06 4.18831e+06 20.13 0 0 0
1.41729e+06 4.18831e+06 11.78 0 0 0
1.41729e+06 4.18831e+06 8.16 0 0 0
1.41729e+06 4.18831e+06 15.98 0 0 0
1.41729e+06 4.18831e+06 20.03 0 0 0
1.41729e+06 4.18831e+06 19.68 0 0 0
1.41729e+06 4.18831e+06 19.97 0 0 0
1.41729e+06 4.1883e+06 20.28 0 0 0
1.41729e+06 4.1883e+06 20.61 0 0 0
1.41729e+06 4.1883e+06 20.16 0 0 0
1.41729e+06 4.1883e+06 19.68 0 0 0
1.41729e+06 4.1883e+06 20.71 0 0 0
1.41729e+06 4.1883e+06 11.57 0 0 0
1.41729e+06 4.1883e+06 11.7 0 0 0
1.41729e+06 4.1883e+06 18.05 0 0 0
1.41729e+06 4.18829e+06 18.54 0 0 0
1.41729e+06 4.18829e+06 18.88 0 0 0
1.41729e+06 4.18829e+06 19.23 0 0 0
1.41729e+06 4.18829e+06 21.85 0 0 0
1.41729e+06 4.18829e+06 27.59 0 0 0
1.41729e+06 4.18829e+06 28.04 0 0 0
1.41729e+06 4.18829e+06 28.41 0 0 0
1.41729e+06 4.18829e+06 31 0 0 0
1.41729e+06 4.18829e+06 31.43 0 0 0
1.41729e+06 4.18829e+06 31.83 0 0 0
1.41729e+06 4.18828e+06 32.26 0 0 0
1.41729e+06 4.18828e+06 31.95 0 0 0
1.41729e+06 4.18828e+06 31.55 0 0 0
1.41729e+06 4.18828e+06 31.11 0 0 0
1.41729e+06 4.18828e+06 30.79 0 0 0
1.41729e+06 4.18828e+06 28.12 0 0 0
1.41729e+06 4.18828e+06 31.1 0 0 0
1.41729e+06 4.18828e+06 31.54 0 0 0
1.41729e+06 4.18828e+06 32.03 0 0 0
1.41729e+06 4.18828e+06 32.14 0 0 0
1.41729e+06 4.18829e+06 31.67 0 0 0
1.41729e+06 4.18829e+06 31.17 0 0 0
1.41729e+06 4.18829e+06 29.01 0 0 0
1.41729e+06 4.18829e+06 28.07 0 0 0
1.41729e+06 4.18829e+06 26.25 0 0 0
1.41729e+06 4.18829e+06 19.54 0 0 0
1.41729e+06 4.18829e+06 19.1 0 0 0
1.41729e+06 4.18829e+06 18.64 0 0 0
1.41729e+06 4.1883e+06 18.3 0 0 0
1.41729e+06 4.1883e+06 11.73 0 0 0
1.41729e+06 4.1883e+06 20.9 0 0 0
1.41729e+06 4.1883e+06 11.38 0 0 0
1.41729e+06 4.1883e+06 19.89 0 0 0
1.41729e+06 4.1883e+06 20.42 0 0 0
1.41729e+06 4.1883e+06 20.38 0 0 0
1.41729e+06 4.1883e+06 20.05 0 0 0
1.41729e+06 4.18831e+06 19.71 0 0 0
1.41729e+06 4.18831e+06 20.15 0 0 0
1.41729e+06 4.18831e+06 13.89 0 0 0
1.41729e+06 4.18831e+06 7.61 0 0 0
1.41729e+06 4.18831e+06 11.69 0 0 0
1.41729e+06 4.18831e+06 19.93 0 0 0
1.41729e+06 4.18831e+06 19.58 0 0 0
1.41729e+06 4.18831e+06 19.78 0 0 0
1.41729e+06 4.1883e+06 20.05 0 0 0
1.41729e+06 4.1883e+06 20.38 0 0 0
1.41729e+06 4.1883e+06 20.56 0 0 0
1.41729e+06 4.1883e+06 19.99 0 0 0
1.41729e+06 4.1883e+06 19.59 0 0 0
1.41729e+06 4.1883e+06 18.16 0 0 0
1.41729e+06 4.1883e+06 18.3 0 0 0
1.41729e+06 4.1883e+06 18.41 0 0 0
1.41729e+06 4.18829e+06 18.68 0 0 0
1.41729e+06 4.18829e+06 18.98 0 0 0
1.41729e+06 4.18829e+06 19.3 0 0 0
1.41729e+06 4.18829e+06 21.32 0 0 0
1.41729e+06 4.18829e+06 27.82 0 0 0
1.41729e+06 4.18829e+06 28.14 0 0 0
1.41729e+06 4.18829e+06 30.71 0 0 0
1.41729e+06 4.18829e+06 31.16 0 0 0
1.41729e+06 4.18829e+06 31.57 0 0 0
1.41729e+06 4.18828e+06 31.99 0 0 0
1.41729e+06 4.18828e+06 32.3 0 0 0
1.41729e+06 4.18828e+06 31.87 0 0 0
1.41729e+06 4.18828e+06 31.77 0 0 0
1.41729e+06 4.18828e+06 32.88 0 0 0
1.41729e+06 4.18828e+06 28.22 0 0 0
1.41729e+06 4.18828e+06 33.7 0 0 0
1.41729e+06 4.18828e+06 33.33 0 0 0
1.41729e+06 4.18828e+06 32.67 0 0 0
1.41729e+06 4.18828e+06 32.33 0 0 0
1.41729e+06 4.18829e+06 31.87 0 0 0
1.41729e+06 4.18829e+06 31.42 0 0 0
1.41729e+06 4.18829e+06 30.89 0 0 0
1.41729e+06 4.18829e+06 28.41 0 0 0
1.41729e+06 4.18829e+06 27.85 0 0 0
1.41729e+06 4.18829e+06 21.19 0 0 0
1.41729e+06 4.18829e+06 19.22 0 0 0
1.41729e+06 4.18829e+06 18.9 0 0 0
1.41729e+06 4.18829e+06 18.56 0 0 0
1.41729e+06 4.1883e+06 18.46 0 0 0
1.41729e+06 4.1883e+06 18.37 0 0 0
1.41729e+06 4.1883e+06 19.65 0 0 0
1.41729e+06 4.1883e+06 20.15 0 0 0
1.41729e+06 4.1883e+06 20.59 0 0 0
1.41729e+06 4.1883e+06 20.14 0 0 0
1.41729e+06 4.18831e+06 19.77 0 0 0
1.41729e+06 4.18831e+06 19.53 0 0 0
1.41729e+06 4.18831e+06 16.66 0 0 0
1.41729e+06 4.18831e+06 8.38 0 0 0
1.41729e+06 4.18831e+06 15.41 0 0 0
1.41729e+06 4.18831e+06 20.13 0 0 0
1.41729e+06 4.18831e+06 19.64 0 0 0
1.41729e+06 4.18831e+06 19.89 0 0 0
1.41729e+06 4.1883e+06 20.27 0 0 0
1.41729e+06 4.1883e+06 20.63 0 0 0
1.41729e+06 4.1883e+06 20.24 0 0 0
1.41729e+06 4.1883e+06 19.76 0 0 0
1.41729e+06 4.1883e+06 19.38 0 0 0
1.41729e+06 4.1883e+06 18.68 0 0 0
1.41729e+06 4.1883e+06 18.89 0 0 0
1.41729e+06 4.18829e+06 19.53 0 0 0
1.41729e+06 4.18829e+06 20.83 0 0 0
1.41729e+06 4.18829e+06 22.05 0 0 0
1.41729e+06 4.18829e+06 23.17 0 0 0
1.41729e+06 4.18829e+06 25.51 0 0 0
1.41729e+06 4.18829e+06 27.99 0 0 0
1.41729e+06 4.18829e+06 29.9 0 0 0
1.41729e+06 4.18829e+06 30.89 0 0 0
1.41729e+06 4.18829e+06 31.3 0 0 0
1.41729e+06 4.18829e+06 31.79 0 0 0
1.41729e+06 4.18828e+06 32.23 0 0 0
1.41729e+06 4.18828e+06 32.11 0 0 0
1.41729e+06 4.18828e+06 31.69 0 0 0
1.41729e+06 4.18828e+06 31.26 0 0 0
1.41729e+06 4.18828e+06 30.94 0 0 0
1.41729e+06 4.18828e+06 31.01 0 0 0
1.41729e+06 4.18828e+06 31.42 0 0 0
1.41729e+06 4.18828e+06 31.92 0 0 0
1.41729e+06 4.18828e+06 32.32 0 0 0
1.41729e+06 4.18829e+06 31.84 0 0 0
1.41729e+06 4.18829e+06 31.35 0 0 0
1.41729e+06 4.18829e+06 30.88 0 0 0
1.41729e+06 4.18829e+06 28.69 0 0 0
1.41729e+06 4.18829e+06 27.87 0 0 0
1.41729e+06 4.18829e+06 24.83 0 0 0
1.41729e+06 4.18829e+06 23.86 0 0 0
1.41729e+06 4.18829e+06 23.35 0 0 0
1.41729e+06 4.1883e+06 21.68 0 0 0
1.41729e+06 4.1883e+06 19.42 0 0 0
1.41729e+06 4.1883e+06 18.85 0 0 0
1.41729e+06 4.1883e+06 19.67 0 0 0
1.41729e+06 4.1883e+06 20.11 0 0 0
1.41729e+06 4.1883e+06 20.64 0 0 0
1.41729e+06 4.1883e+06 20.16 0 0 0
1.41729e+06 4.18831e+06 19.87 0 0 0
1.41729e+06 4.18831e+06 19.56 0 0 0
1.41729e+06 4.18831e+06 20.02 0 0 0
1.41729e+06 4.18831e+06 7.75 0 0 0
1.41729e+06 4.18831e+06 11.46 0 0 0
1.41729e+06 4.18831e+06 16.68 0 0 0
1.41729e+06 4.18831e+06 19.54 0 0 0
1.41729e+06 4.18831e+06 19.78 0 0 0
1.41729e+06 4.1883e+06 20.1 0 0 0
1.41729e+06 4.1883e+06 20.41 0 0 0
1.41729e+06 4.1883e+06 20.61 0 0 0
1.41729e+06 4.1883e+06 20.58 0 0 0
1.41729e+06 4.1883e+06 21.1 0 0 0
1.41729e+06 4.1883e+06 22.99 0 0 0
1.41729e+06 4.1883e+06 23.86 0 0 0
1.41729e+06 4.1883e+06 24.03 0 0 0
1.41729e+06 4.1883e+06 25.97 0 0 0
1.41729e+06 4.18829e+06 26.56 0 0 0
1.41729e+06 4.18829e+06 30.45 0 0 0
1.41729e+06 4.18829e+06 31.07 0 0 0
1.41729e+06 4.18829e+06 31.46 0 0 0
1.41729e+06 4.18828e+06 31.9 0 0 0
1.41729e+06 4.18828e+06 32.32 0 0 0
1.41729e+06 4.18828e+06 31.96 0 0 0
1.41729e+06 4.18828e+06 31.57 0 0 0
1.41729e+06 4.18828e+06 31.12 0 0 0
1.41729e+06 4.18828e+06 28.09 0 0 0
1.41729e+06 4.18828e+06 28.07 0 0 0
1.41729e+06 4.18828e+06 31.2 0 0 0
1.41729e+06 4.18828e+06 31.66 0 0 0
1.41729e+06 4.18828e+06 32.15 0 0 0
1.41729e+06 4.18828e+06 32.06 0 0 0
1.41729e+06 4.18829e+06 31.59 0 0 0
1.41729e+06 4.18829e+06 31.05 0 0 0
1.41729e+06 4.18829e+06 28.04 0 0 0
1.41729e+06 4.18829e+06 26.54 0 0 0
1.41729e+06 4.18829e+06 26.66 0 0 0
1.41729e+06 4.1883e+06 27.12 0 0 0
1.41729e+06 4.1883e+06 24.44 0 0 0
1.41729e+06 4.1883e+06 23.54 0 0 0
1.41729e+06 4.1883e+06 22.07 0 0 0
1.41729e+06 4.1883e+06 20.67 0 0 0
1.41729e+06 4.1883e+06 21.16 0 0 0
1.41729e+06 4.18831e+06 19.71 0 0 0
1.41729e+06 4.18831e+06 20.12 0 0 0
1.41729e+06 4.18831e+06 13.3 0 0 0
1.41729e+06 4.18831e+06 11.49 0 0 0
1.41729e+06 4.18831e+06 20.49 0 0 0
1.41729e+06 4.18831e+06 23.25 0 0 0
1.41729e+06 4.18831e+06 24.11 0 0 0
1.41729e+06 4.1883e+06 26.24 0 0 0
1.41729e+06 4.1883e+06 25.16 0 0 0
1.41729e+06 4.1883e+06 27.76 0 0 0
1.41729e+06 4.1883e+06 27.39 0 0 0
1.41729e+06 4.1883e+06 27 0 0 0
1.41729e+06 4.1883e+06 26.56 0 0 0
1.41729e+06 4.1883e+06 26.6 0 0 0
1.41729e+06 4.18829e+06 23.82 0 0 0
1.41729e+06 4.18829e+06 28.05 0 0 0
1.41729e+06 4.18829e+06 28.96 0 0 0
1.41729e+06 4.18829e+06 30.07 0 0 0
1.41729e+06 4.18829e+06 31.12 0 0 0
1.41729e+06 4.18829e+06 33.15 0 0 0
1.41729e+06 4.18829e+06 31.95 0 0 0
1.41729e+06 4.18828e+06 32.11 0 0 0
1.41729e+06 4.18828e+06 32.1 0 0 0
1.41729e+06 4.18828e+06 31.68 0 0 0
1.41729e+06 4.18828e+06 31.26 0 0 0
1.41729e+06 4.18828e+06 30.9 0 0 0
1.41729e+06 4.18828e+06 30.94 0 0 0
1.41729e+06 4.18828e+06 31.37 0 0 0
1.41729e+06 4.18828e+06 31.82 0 0 0
1.41729e+06 4.18828e+06 32.34 0 0 0
1.41729e+06 4.18828e+06 31.85 0 0 0
1.41729e+06 4.18829e+06 31.4 0 0 0
1.41729e+06 4.18829e+06 30.92 0 0 0
1.41729e+06 4.18829e+06 26.75 0 0 0
1.41729e+06 4.18829e+06 25.47 0 0 0
1.41729e+06 4.18829e+06 23.88 0 0 0
1.41729e+06 4.1883e+06 26.51 0 0 0
1.41729e+06 4.1883e+06 26.57 0 0 0
1.41729e+06 4.1883e+06 27.17 0 0 0
1.41729e+06 4.1883e+06 27.64 0 0 0
1.41729e+06 4.1883e+06 27.94 0 0 0
1.41729e+06 4.1883e+06 27.44 0 0 0
1.41729e+06 4.1883e+06 26.71 0 0 0
1.41729e+06 4.18831e+06 23.58 0 0 0
1.41729e+06 4.18831e+06 13.74 0 0 0
1.41728e+06 4.18831e+06 7.49 0 0 0
1.41728e+06 4.18831e+06 7.51 0 0 0
1.41729e+06 4.18831e+06 14.92 0 0 0
1.41729e+06 4.18831e+06 23.66 0 0 0
1.41729e+06 4.18831e+06 25 0 0 0
1.41729e+06 4.18831e+06 26.86 0 0 0
1.41729e+06 4.1883e+06 27.22 0 0 0
1.41729e+06 4.1883e+06 27.53 0 0 0
1.41729e+06 4.1883e+06 27.97 0 0 0
1.41729e+06 4.1883e+06 27.68 0 0 0
1.41729e+06 4.1883e+06 27.28 0 0 0
1.41729e+06 4.1883e+06 26.88 0 0 0
1.41729e+06 4.1883e+06 26.54 0 0 0
1.41729e+06 4.18829e+06 23.73 0 0 0
1.41728e+06 4.18829e+06 7.95 0 0 0
1.41728e+06 4.18829e+06 17.26 0 0 0
1.41729e+06 4.18829e+06 24.71 0 0 0
1.41729e+06 4.18829e+06 28.38 0 0 0
1.41729e+06 4.18829e+06 29.35 0 0 0
1.41729e+06 4.18829e+06 30.44 0 0 0
1.41729e+06 4.18829e+06 31.03 0 0 0
1.41729e+06 4.18829e+06 31.47 0 0 0
1.41729e+06 4.18828e+06 31.85 0 0 0
1.41729e+06 4.18828e+06 32.35 0 0 0
1.41729e+06 4.18828e+06 31.92 0 0 0
1.41729e+06 4.18828e+06 31.54 0 0 0
1.41729e+06 4.18828e+06 31.13 0 0 0
1.41728e+06 4.18828e+06 28.1 0 0 0
1.41728e+06 4.18828e+06 28.23 0 0 0
1.41729e+06 4.18828e+06 31.1 0 0 0
1.41729e+06 4.18828e+06 31.57 0 0 0
1.41729e+06 4.18828e+06 32.06 0 0 0
1.41729e+06 4.18828e+06 32.17 0 0 0
1.41729e+06 4.18829e+06 31.66 0 0 0
1.41729e+06 4.18829e+06 31.17 0 0 0
1.41729e+06 4.18829e+06 30.63 0 0 0
1.41729e+06 4.18829e+06 30.43 0 0 0
1.41729e+06 4.18829e+06 28.21 0 0 0
1.41728e+06 4.18829e+06 21.71 0 0 0
1.41728e+06 4.18829e+06 13.68 0 0 0
1.41728e+06 4.18829e+06 8.04 0 0 0
1.41729e+06 4.1883e+06 27.63 0 0 0
1.41729e+06 4.1883e+06 26.93 0 0 0
1.41729e+06 4.1883e+06 27.41 0 0 0
1.41729e+06 4.1883e+06 27.91 0 0 0
1.41729e+06 4.1883e+06 27.75 0 0 0
1.41729e+06 4.1883e+06 27.3 0 0 0
1.41729e+06 4.18831e+06 26.86 0 0 0
1.41729e+06 4.18831e+06 24.67 0 0 0
1.41729e+06 4.18831e+06 20.7 0 0 0
1.41728e+06 4.18831e+06 11.4 0 0 0
1.41728e+06 4.18831e+06 7.73 0 0 0
1.41728e+06 4.18831e+06 17.3 0 0 0
1.41729e+06 4.18831e+06 23.78 0 0 0
1.41729e+06 4.18831e+06 25.07 0 0 0
1.41729e+06 4.18831e+06 26.91 0 0 0
1.41729e+06 4.1883e+06 27.25 0 0 0
1.41729e+06 4.1883e+06 27.58 0 0 0
1.41729e+06 4.1883e+06 27.98 0 0 0
1.41729e+06 4.1883e+06 27.65 0 0 0
1.41729e+06 4.1883e+06 27.26 0 0 0
1.41729e+06 4.1883e+06 26.87 0 0 0
1.41729e+06 4.1883e+06 27.72 0 0 0
1.41728e+06 4.18829e+06 7.62 0 0 0
1.41728e+06 4.18829e+06 11.16 0 0 0
1.41728e+06 4.18829e+06 17.55 0 0 0
1.41728e+06 4.18829e+06 25.03 0 0 0
1.41728e+06 4.18829e+06 28.36 0 0 0
1.41728e+06 4.18829e+06 29.4 0 0 0
1.41728e+06 4.18829e+06 30.38 0 0 0
1.41728e+06 4.18829e+06 31.07 0 0 0
1.41728e+06 4.18829e+06 31.48 0 0 0
1.41728e+06 4.18828e+06 31.88 0 0 0
1.41728e+06 4.18828e+06 32.36 0 0 0
1.41728e+06 4.18828e+06 31.94 0 0 0
1.41728e+06 4.18828e+06 31.53 0 0 0
1.41728e+06 4.18828e+06 31.16 0 0 0
1.41728e+06 4.18828e+06 30.49 0 0 0
1.41728e+06 4.18828e+06 28 0 0 0
1.41728e+06 4.18828e+06 31.12 0 0 0
1.41728e+06 4.18828e+06 31.62 0 0 0
1.41728e+06 4.18828e+06 32.08 0 0 0
1.41728e+06 4.18828e+06 32.09 0 0 0
1.41728e+06 4.18829e+06 31.65 0 0 0
1.41728e+06 4.18829e+06 31.1 0 0 0
1.41728e+06 4.18829e+06 30.24 0 0 0
1.41728e+06 4.18829e+06 29.26 0 0 0
1.41728e+06 4.18829e+06 28.08 0 0 0
1.41728e+06 4.18829e+06 21.22 0 0 0
1.41728e+06 4.18829e+06 13.53 0 0 0
1.41728e+06 4.1883e+06 26.01 0 0 0
1.41728e+06 4.1883e+06 26.95 0 0 0
1.41728e+06 4.1883e+06 27.41 0 0 0
1.41729e+06 4.1883e+06 27.92 0 0 0
1.41729e+06 4.1883e+06 27.7 0 0 0
1.41729e+06 4.1883e+06 27.24 0 0 0
1.41729e+06 4.18831e+06 26.88 0 0 0
1.41728e+06 4.18831e+06 20.66 0 0 0
1.41728e+06 4.18831e+06 11.6 0 0 0
1.41728e+06 4.18831e+06 16.18 0 0 0
1.41728e+06 4.18831e+06 23.76 0 0 0
1.41728e+06 4.18831e+06 26.24 0 0 0
1.41728e+06 4.18831e+06 26.93 0 0 0
1.41728e+06 4.1883e+06 27.27 0 0 0
1.41728e+06 4.1883e+06 27.66 0 0 0
1.41728e+06 4.1883e+06 28 0 0 0
1.41728e+06 4.1883e+06 27.65 0 0 0
1.41728e+06 4.1883e+06 27.19 0 0 0
1.41728e+06 4.1883e+06 26.86 0 0 0
1.41728e+06 4.18829e+06 9.96 0 0 0
1.41728e+06 4.18829e+06 18.09 0 0 0
1.41728e+06 4.18829e+06 25.1 0 0 0
1.41728e+06 4.18829e+06 28.49 0 0 0
1.41728e+06 4.18829e+06 30.57 0 0 0
1.41728e+06 4.18829e+06 30.67 0 0 0
1.41728e+06 4.18829e+06 31.08 0 0 0
1.41728e+06 4.18829e+06 31.5 0 0 0
1.41728e+06 4.18828e+06 31.89 0 0 0
1.41728e+06 4.18828e+06 32.33 0 0 0
1.41728e+06 4.18828e+06 31.91 0 0 0
1.41728e+06 4.18828e+06 31.5 0 0 0
1.41728e+06 4.18828e+06 31.51 0 0 0
1.41728e+06 4.18828e+06 27.98 0 0 0
1.41728e+06 4.18828e+06 33.26 0 0 0
1.41728e+06 4.18828e+06 31.83 0 0 0
1.41728e+06 4.18828e+06 32.03 0 0 0
1.41728e+06 4.18828e+06 32.2 0 0 0
1.41728e+06 4.18828e+06 31.69 0 0 0
1.41728e+06 4.18829e+06 31.18 0 0 0
1.41728e+06 4.18829e+06 30.63 0 0 0
1.41728e+06 4.18829e+06 30.78 0 0 0
1.41728e+06 4.18829e+06 28.28 0 0 0
1.41728e+06 4.18829e+06 22.55 0 0 0
1.41728e+06 4.18829e+06 13.81 0 0 0
1.41728e+06 4.18829e+06 9.36 0 0 0
1.41728e+06 4.18829e+06 9.37 0 0 0
1.41728e+06 4.1883e+06 26.87 0 0 0
1.41728e+06 4.1883e+06 27.39 0 0 0
1.41728e+06 4.1883e+06 27.85 0 0 0
1.41728e+06 4.1883e+06 27.75 0 0 0
1.41728e+06 4.1883e+06 27.37 0 0 0
1.41728e+06 4.18831e+06 26.94 0 0 0
1.41728e+06 4.18831e+06 20.89 0 0 0
1.41728e+06 4.18831e+06 10.84 0 0 0
1.41728e+06 4.18831e+06 17.61 0 0 0
1.41728e+06 4.18831e+06 23.74 0 0 0
1.41728e+06 4.1883e+06 27.01 0 0 0
1.41728e+06 4.1883e+06 27.35 0 0 0
1.41728e+06 4.1883e+06 27.71 0 0 0
1.41728e+06 4.1883e+06 27.96 0 0 0
1.41728e+06 4.1883e+06 27.51 0 0 0
1.41728e+06 4.1883e+06 27.1 0 0 0
1.41728e+06 4.1883e+06 26.74 0 0 0
1.41728e+06 4.18829e+06 10.12 0 0 0
1.41728e+06 4.18829e+06 11.54 0 0 0
1.41728e+06 4.18829e+06 13.33 0 0 0
1.41728e+06 4.18829e+06 20.28 0 0 0
1.41728e+06 4.18829e+06 26.64 0 0 0
1.41728e+06 4.18829e+06 28.92 0 0 0
1.41728e+06 4.18829e+06 30.98 0 0 0
1.41728e+06 4.18829e+06 32.07 0 0 0
1.41728e+06 4.18829e+06 31.22 0 0 0
1.41728e+06 4.18829e+06 31.62 0 0 0
1.41728e+06 4.18828e+06 32.01 0 0 0
1.41728e+06 4.18828e+06 32.27 0 0 0
1.41728e+06 4.18828e+06 31.83 0 0 0
1.41728e+06 4.18828e+06 31.43 0 0 0
1.41728e+06 4.18828e+06 30.99 0 0 0
1.41728e+06 4.18828e+06 30.27 0 0 0
1.41728e+06 4.18828e+06 30.91 0 0 0
1.41728e+06 4.18828e+06 31.36 0 0 0
1.41728e+06 4.18828e+06 31.87 0 0 0
1.41728e+06 4.18828e+06 32.34 0 0 0
1.41728e+06 4.18828e+06 31.84 0 0 0
1.41728e+06 4.18829e+06 31.39 0 0 0
1.41728e+06 4.18829e+06 33.21 0 0 0
1.41728e+06 4.18829e+06 33.19 0 0 0
1.41728e+06 4.18829e+06 28.62 0 0 0
1.41728e+06 4.18829e+06 24.84 0 0 0
1.41728e+06 4.18829e+06 16.51 0 0 0
1.41728e+06 4.18829e+06 14.15 0 0 0
1.41728e+06 4.18829e+06 12.89 0 0 0
1.41728e+06 4.1883e+06 26.7 0 0 0
1.41728e+06 4.1883e+06 27.24 0 0 0
1.41728e+06 4.1883e+06 27.72 0 0 0
1.41728e+06 4.1883e+06 27.88 0 0 0
1.41728e+06 4.1883e+06 27.42 0 0 0
1.41728e+06 4.1883e+06 27.06 0 0 0
1.41728e+06 4.18831e+06 23.79 0 0 0
1.41728e+06 4.18831e+06 14.35 0 0 0
1.41728e+06 4.18831e+06 11.33 0 0 0
1.41728e+06 4.18831e+06 18.35 0 0 0
1.41728e+06 4.18831e+06 23.79 0 0 0
1.41728e+06 4.18831e+06 26.13 0 0 0
1.41728e+06 4.1883e+06 27.02 0 0 0
1.41728e+06 4.1883e+06 27.38 0 0 0
1.41728e+06 4.1883e+06 27.76 0 0 0
1.41728e+06 4.1883e+06 27.98 0 0 0
1.41728e+06 4.1883e+06 27.53 0 0 0
1.41728e+06 4.1883e+06 27.1 0 0 0
1.41728e+06 4.1883e+06 26.49 0 0 0
1.41728e+06 4.18829e+06 17.53 0 0 0
1.41728e+06 4.18829e+06 19.06 0 0 0
1.41728e+06 4.18829e+06 20.73 0 0 0
1.41728e+06 4.18829e+06 21.5 0 0 0
1.41728e+06 4.18829e+06 27.53 0 0 0
1.41728e+06 4.18829e+06 28.89 0 0 0
1.41728e+06 4.18829e+06 30.58 0 0 0
1.41728e+06 4.18829e+06 30.77 0 0 0
1.41728e+06 4.18829e+06 31.25 0 0 0
1.41728e+06 4.18828e+06 31.6 0 0 0
1.41728e+06 4.18828e+06 32.19 0 0 0
1.41728e+06 4.18828e+06 32.43 0 0 0
1.41728e+06 4.18828e+06 31.76 0 0 0
1.41728e+06 4.18828e+06 31.34 0 0 0
1.41728e+06 4.18828e+06 30.98 0 0 0
1.41728e+06 4.18828e+06 28.17 0 0 0
1.41728e+06 4.18828e+06 28.67 0 0 0
1.41728e+06 4.18828e+06 31.02 0 0 0
1.41728e+06 4.18828e+06 31.48 0 0 0
1.41728e+06 4.18828e+06 31.95 0 0 0
1.41728e+06 4.18828e+06 32.51 0 0 0
1.41728e+06 4.18828e+06 31.74 0 0 0
1.41728e+06 4.18829e+06 31.27 0 0 0
1.41728e+06 4.18829e+06 30.74 0 0 0
1.41728e+06 4.18829e+06 24.6 0 0 0
1.41728e+06 4.18829e+06 23.15 0 0 0
1.41728e+06 4.18829e+06 21.49 0 0 0
1.41728e+06 4.18829e+06 18.55 0 0 0
1.41728e+06 4.1883e+06 26.8 0 0 0
1.41728e+06 4.1883e+06 27.32 0 0 0
1.41728e+06 4.1883e+06 27.8 0 0 0
1.41728e+06 4.1883e+06 27.82 0 0 0
1.41728e+06 4.1883e+06 27.4 0 0 0
1.41728e+06 4.1883e+06 27 0 0 0
1.41728e+06 4.18831e+06 23.67 0 0 0
1.41728e+06 4.18831e+06 13.72 0 0 0
1.41728e+06 4.18831e+06 14.27 0 0 0
1.41728e+06 4.18831e+06 20.94 0 0 0
1.41728e+06 4.18831e+06 26.85 0 0 0
1.41728e+06 4.1883e+06 27.2 0 0 0
1.41728e+06 4.1883e+06 27.57 0 0 0
1.41728e+06 4.1883e+06 27.97 0 0 0
1.41728e+06 4.1883e+06 27.84 0 0 0
1.41728e+06 4.1883e+06 27.3 0 0 0
1.41728e+06 4.1883e+06 26.91 0 0 0
1.41728e+06 4.1883e+06 23.87 0 0 0
1.41728e+06 4.18829e+06 17.24 0 0 0
1.41728e+06 4.18829e+06 22.8 0 0 0
1.41728e+06 4.18829e+06 24.86 0 0 0
1.41728e+06 4.18829e+06 24.98 0 0 0
1.41728e+06 4.18829e+06 25.06 0 0 0
1.41728e+06 4.18829e+06 28.31 0 0 0
1.41728e+06 4.18829e+06 30.44 0 0 0
1.41728e+06 4.18829e+06 30.55 0 0 0
1.41728e+06 4.18829e+06 31.02 0 0 0
1.41728e+06 4.18829e+06 31.42 0 0 0
1.41728e+06 4.18828e+06 31.91 0 0 0
1.41728e+06 4.18828e+06 32.55 0 0 0
1.41728e+06 4.18828e+06 32.03 0 0 0
1.41728e+06 4.18828e+06 32.63 0 0 0
1.41728e+06 4.18828e+06 34.51 0 0 0
1.41728e+06 4.18828e+06 35.27 0 0 0
1.41728e+06 4.18828e+06 33.27 0 0 0
1.41728e+06 4.18828e+06 32.9 0 0 0
1.41728e+06 4.18828e+06 32.21 0 0 0
1.41728e+06 4.18828e+06 31.55 0 0 0
1.41728e+06 4.18829e+06 31.04 0 0 0
1.41728e+06 4.18829e+06 30.83 0 0 0
1.41728e+06 4.18829e+06 29.25 0 0 0
1.41728e+06 4.18829e+06 28.02 0 0 0
1.41728e+06 4.18829e+06 25.09 0 0 0
1.41728e+06 4.18829e+06 25.01 0 0 0
1.41728e+06 4.18829e+06 24.61 0 0 0
1.41728e+06 4.18829e+06 17.33 0 0 0
1.41728e+06 4.1883e+06 27.03 0 0 0
1.41728e+06 4.1883e+06 27.47 0 0 0
1.41728e+06 4.1883e+06 28.25 0 0 0
1.41728e+06 4.1883e+06 27.71 0 0 0
1.41728e+06 4.1883e+06 27.25 0 0 0
1.41728e+06 4.18831e+06 26.82 0 0 0
1.41728e+06 4.18831e+06 24.12 0 0 0
1.41728e+06 4.18831e+06 20.36 0 0 0
1.41728e+06 4.18831e+06 11.25 0 0 0
1.41728e+06 4.18831e+06 7.37 0 0 0
1.41728e+06 4.18831e+06 11.21 0 0 0
1.41728e+06 4.18831e+06 17.62 0 0 0
1.41728e+06 4.18831e+06 23.72 0 0 0
1.41728e+06 4.18831e+06 25.88 0 0 0
1.41728e+06 4.1883e+06 27.01 0 0 0
1.41728e+06 4.1883e+06 27.41 0 0 0
1.41728e+06 4.1883e+06 27.77 0 0 0
1.41728e+06 4.1883e+06 28.19 0 0 0
1.41728e+06 4.1883e+06 27.57 0 0 0
1.41728e+06 4.1883e+06 27.13 0 0 0
1.41728e+06 4.1883e+06 26.84 0 0 0
1.41727e+06 4.18829e+06 10.88 0 0 0
1.41728e+06 4.18829e+06 25.21 0 0 0
1.41728e+06 4.18829e+06 25.3 0 0 0
1.41727e+06 4.18829e+06 11 0 0 0
1.41728e+06 4.18829e+06 25.35 0 0 0
1.41727e+06 4.18829e+06 18.88 0 0 0
1.41728e+06 4.18829e+06 28.1 0 0 0
1.41728e+06 4.18829e+06 29.48 0 0 0
1.41728e+06 4.18829e+06 32.76 0 0 0
1.41728e+06 4.18829e+06 33.16 0 0 0
1.41728e+06 4.18829e+06 31.71 0 0 0
1.41728e+06 4.18828e+06 32.55 0 0 0
1.41728e+06 4.18828e+06 34.53 0 0 0
1.41728e+06 4.18828e+06 33.68 0 0 0
1.41728e+06 4.18828e+06 33.77 0 0 0
1.41728e+06 4.18828e+06 34.58 0 0 0
1.41728e+06 4.18829e+06 33.84 0 0 0
1.41728e+06 4.18829e+06 33.55 0 0 0
1.41728e+06 4.18829e+06 32.01 0 0 0
1.41728e+06 4.18829e+06 29.04 0 0 0
1.41727e+06 4.18829e+06 17.56 0 0 0
1.41727e+06 4.18829e+06 11.48 0 0 0
1.41727e+06 4.18829e+06 11 0 0 0
1.41728e+06 4.1883e+06 27.48 0 0 0
1.41727e+06 4.18829e+06 16.52 0 0 0
1.41728e+06 4.1883e+06 26.96 0 0 0
1.41728e+06 4.1883e+06 27.48 0 0 0
1.41728e+06 4.1883e+06 28.07 0 0 0
1.41728e+06 4.1883e+06 27.7 0 0 0
1.41728e+06 4.1883e+06 27.28 0 0 0
1.41728e+06 4.1883e+06 26.86 0 0 0
1.41728e+06 4.18831e+06 20.46 0 0 0
1.41727e+06 4.18831e+06 11.16 0 0 0
1.41727e+06 4.18831e+06 7.4 0 0 0
1.41727e+06 4.18831e+06 9.48 0 0 0
1.41727e+06 4.18831e+06 17.57 0 0 0
1.41728e+06 4.18831e+06 23.73 0 0 0
1.41728e+06 4.18831e+06 26.3 0 0 0
1.41728e+06 4.1883e+06 26.96 0 0 0
1.41728e+06 4.1883e+06 27.33 0 0 0
1.41728e+06 4.1883e+06 27.76 0 0 0
1.41728e+06 4.1883e+06 28.07 0 0 0
1.41728e+06 4.1883e+06 28.27 0 0 0
1.41728e+06 4.1883e+06 29.72 0 0 0
1.41728e+06 4.1883e+06 31.94 0 0 0
1.41728e+06 4.1883e+06 33.26 0 0 0
1.41727e+06 4.18829e+06 16.5 0 0 0
1.41727e+06 4.18829e+06 17.26 0 0 0
1.41727e+06 4.18829e+06 18.37 0 0 0
1.41727e+06 4.18829e+06 24.85 0 0 0
1.41727e+06 4.18829e+06 30.06 0 0 0
1.41727e+06 4.18828e+06 33.69 0 0 0
1.41727e+06 4.18828e+06 31.57 0 0 0
1.41727e+06 4.18828e+06 31.95 0 0 0
1.41727e+06 4.18829e+06 29.93 0 0 0
1.41727e+06 4.18829e+06 29.16 0 0 0
1.41727e+06 4.18829e+06 21.3 0 0 0
1.41727e+06 4.18829e+06 20.72 0 0 0
1.41727e+06 4.18829e+06 20.66 0 0 0
1.41728e+06 4.1883e+06 34.53 0 0 0
1.41728e+06 4.1883e+06 32.95 0 0 0
1.41728e+06 4.1883e+06 31.25 0 0 0
1.41728e+06 4.1883e+06 30.09 0 0 0
1.41728e+06 4.1883e+06 28.46 0 0 0
1.41728e+06 4.1883e+06 27.98 0 0 0
1.41728e+06 4.1883e+06 27.02 0 0 0
1.41728e+06 4.18831e+06 25.13 0 0 0
1.41727e+06 4.18831e+06 21.23 0 0 0
1.41727e+06 4.18831e+06 18.02 0 0 0
1.41727e+06 4.18831e+06 7.32 0 0 0
1.41727e+06 4.18831e+06 16.95 0 0 0
1.41727e+06 4.18831e+06 24.89 0 0 0
1.41728e+06 4.1883e+06 34.42 0 0 0
1.41727e+06 4.18829e+06 23.95 0 0 0
1.41727e+06 4.18829e+06 26.91 0 0 0
1.41727e+06 4.18829e+06 25.35 0 0 0
1.41727e+06 4.18829e+06 26.68 0 0 0
1.41727e+06 4.18829e+06 30.74 0 0 0
1.41727e+06 4.18829e+06 31.48 0 0 0
1.41727e+06 4.18828e+06 32.34 0 0 0
1.41727e+06 4.18828e+06 32.72 0 0 0
1.41727e+06 4.18828e+06 33.75 0 0 0
1.41727e+06 4.18828e+06 33.88 0 0 0
1.41727e+06 4.18828e+06 33.1 0 0 0
1.41727e+06 4.18828e+06 33.09 0 0 0
1.41727e+06 4.18829e+06 32.35 0 0 0
1.41727e+06 4.18829e+06 31.27 0 0 0
1.41727e+06 4.18829e+06 30.17 0 0 0
1.41727e+06 4.18829e+06 29.12 0 0 0
1.41727e+06 4.18829e+06 29.16 0 0 0
1.41727e+06 4.18829e+06 29.06 0 0 0
1.41727e+06 4.18829e+06 25.48 0 0 0
1.41727e+06 4.1883e+06 31.27 0 0 0
1.41727e+06 4.18831e+06 20.53 0 0 0
1.41727e+06 4.18831e+06 10.5 0 0 0
1.41727e+06 4.18831e+06 16.8 0 0 0
1.41727e+06 4.18831e+06 24.9 0 0 0
1.41727e+06 4.18831e+06 21.38 0 0 0
1.41727e+06 4.18829e+06 34.42 0 0 0
1.41727e+06 4.18829e+06 33.1 0 0 0
1.41727e+06 4.18829e+06 33.21 0 0 0
1.41727e+06 4.18829e+06 33.14 0 0 0
1.41727e+06 4.18829e+06 33.39 0 0 0
1.41727e+06 4.18828e+06 32.78 0 0 0
1.41727e+06 4.18828e+06 33.48 0 0 0
1.41727e+06 4.18828e+06 31.48 0 0 0
1.41727e+06 4.18828e+06 33.96 0 0 0
1.41727e+06 4.18828e+06 33.2 0 0 0
1.41727e+06 4.18828e+06 33.04 0 0 0
1.41727e+06 4.18829e+06 33.29 0 0 0
1.41727e+06 4.18829e+06 33.27 0 0 0
1.41727e+06 4.18829e+06 33.18 0 0 0
1.41727e+06 4.18831e+06 24.86 0 0 0
1.41727e+06 4.18831e+06 16.91 0 0 0
1.41727e+06 4.18831e+06 10.67 0 0 0
1.41727e+06 4.18831e+06 7.38 0 0 0
1.41727e+06 4.18831e+06 21.22 0 0 0
1.41727e+06 4.18831e+06 16.77 0 0 0
1.41727e+06 4.18831e+06 24.7 0 0 0
1.41727e+06 4.18829e+06 31.64 0 0 0
1.41727e+06 4.18829e+06 33.38 0 0 0
1.41727e+06 4.18829e+06 33.3 0 0 0
1.41727e+06 4.18829e+06 33.21 0 0 0
1.41727e+06 4.18828e+06 33.37 0 0 0
1.41727e+06 4.18828e+06 33.08 0 0 0
1.41727e+06 4.18828e+06 33.64 0 0 0
1.41727e+06 4.18828e+06 31.17 0 0 0
1.41727e+06 4.18828e+06 33.83 0 0 0
1.41727e+06 4.18828e+06 33.25 0 0 0
1.41727e+06 4.18828e+06 33.2 0 0 0
1.41727e+06 4.18829e+06 33.14 0 0 0
1.41727e+06 4.18829e+06 33.41 0 0 0
1.41727e+06 4.18829e+06 33.23 0 0 0
1.41727e+06 4.18831e+06 21.05 0 0 0
1.41727e+06 4.18831e+06 7.79 0 0 0
1.41727e+06 4.18831e+06 7.61 0 0 0
1.41727e+06 4.18831e+06 16.46 0 0 0
1.41727e+06 4.18831e+06 24.75 0 0 0
1.41727e+06 4.18829e+06 33.2 0 0 0
1.41727e+06 4.18829e+06 33.21 0 0 0
1.41727e+06 4.18829e+06 33.26 0 0 0
1.41727e+06 4.18828e+06 33.46 0 0 0
1.41727e+06 4.18828e+06 33.5 0 0 0
1.41727e+06 4.18828e+06 33.74 0 0 0
1.41727e+06 4.18828e+06 33.79 0 0 0
1.41727e+06 4.18828e+06 33.75 0 0 0
1.41727e+06 4.18829e+06 33.55 0 0 0
1.41727e+06 4.18829e+06 33.39 0 0 0
1.41727e+06 4.18829e+06 33.33 0 0 0
1.41727e+06 4.18831e+06 24.7 0 0 0
1.41727e+06 4.18831e+06 14.1 0 0 0
1.41727e+06 4.18831e+06 16.87 0 0 0
1.41727e+06 4.18831e+06 24.89 0 0 0
1.41727e+06 4.18831e+06 20.9 0 0 0
1.41727e+06 4.18829e+06 33.6 0 0 0
1.41727e+06 4.18829e+06 33.69 0 0 0
1.41727e+06 4.18829e+06 33.71 0 0 0
1.41727e+06 4.18829e+06 33.85 0 0 0
1.41727e+06 4.18828e+06 33.12 0 0 0
1.41727e+06 4.18828e+06 35.26 0 0 0
1.41727e+06 4.18828e+06 32.81 0 0 0
1.41727e+06 4.18828e+06 34.77 0 0 0
1.41727e+06 4.18829e+06 35.98 0 0 0
1.41727e+06 4.18829e+06 33.81 0 0 0
1.41727e+06 4.18829e+06 33.79 0 0 0
1.41727e+06 4.18829e+06 33.7 0 0 0
1.41727e+06 4.18831e+06 24.82 0 0 0
1.41727e+06 4.18831e+06 21.34 0 0 0
1.41727e+06 4.18831e+06 16.92 0 0 0
1.41726e+06 4.18831e+06 16.93 0 0 0
1.41727e+06 4.18831e+06 21.38 0 0 0
1.41727e+06 4.1883e+06 33.73 0 0 0
1.41727e+06 4.18829e+06 35.49 0 0 0
1.41727e+06 4.18829e+06 36.09 0 0 0
1.41727e+06 4.18829e+06 35.96 0 0 0
1.41727e+06 4.18828e+06 35.3 0 0 0
1.41726e+06 4.18828e+06 35.36 0 0 0
1.41727e+06 4.18829e+06 36.14 0 0 0
1.41727e+06 4.18829e+06 34.11 0 0 0
1.41727e+06 4.18831e+06 24.89 0 0 0
1.41726e+06 4.18831e+06 21.04 0 0 0
1.41726e+06 4.18831e+06 16.92 0 0 0
1.41726e+06 4.18831e+06 9.63 0 0 0
1.41726e+06 4.18831e+06 7.41 0 0 0
1.41726e+06 4.18831e+06 16.85 0 0 0
1.41726e+06 4.18831e+06 25 0 0 0
1.41726e+06 4.18831e+06 21.05 0 0 0
1.41726e+06 4.18828e+06 31.59 0 0 0
1.41726e+06 4.18828e+06 31.8 0 0 0
1.41726e+06 4.18831e+06 21.04 0 0 0
1.41726e+06 4.18831e+06 10.01 0 0 0
1.41726e+06 4.18831e+06 16.67 0 0 0
1.41726e+06 4.18831e+06 24.79 0 0 0
1.41726e+06 4.18829e+06 31.73 0 0 0
1.41726e+06 4.18829e+06 32.43 0 0 0
1.41726e+06 4.18829e+06 31.79 0 0 0
1.41726e+06 4.18829e+06 31.76 0 0 0
1.41726e+06 4.18829e+06 32.56 0 0 0
1.41726e+06 4.18829e+06 31.97 0 0 0
1.41726e+06 4.18831e+06 24.82 0 0 0
1.41726e+06 4.18831e+06 16.95 0 0 0
1.41726e+06 4.18831e+06 24.89 0 0 0
1.41726e+06 4.1883e+06 31.62 0 0 0
1.41726e+06 4.18829e+06 31.73 0 0 0
1.41726e+06 4.18829e+06 8.76 0 0 0
1.41726e+06 4.1883e+06 7.65 0 0 0
1.41726e+06 4.1883e+06 7.74 0 0 0
1.41726e+06 4.1883e+06 8.36 0 0 0
1.41726e+06 4.1883e+06 8.99 0 0 0
1.41726e+06 4.1883e+06 9.28 0 0 0
1.41726e+06 4.1883e+06 9.66 0 0 0
1.41726e+06 4.1883e+06 10.51 0 0 0
1.41726e+06 4.18831e+06 8.88 0 0 0
1.41726e+06 4.18831e+06 16.72 0 0 0
1.41726e+06 4.18831e+06 9.19 0 0 0
1.41726e+06 4.1883e+06 16.8 0 0 0
1.41726e+06 4.1883e+06 12.61 0 0 0
1.41726e+06 4.1883e+06 12.33 0 0 0
1.41726e+06 4.1883e+06 12.58 0 0 0
1.41726e+06 4.1883e+06 11.35 0 0 0
1.41726e+06 4.1883e+06 10.91 0 0 0
1.41726e+06 4.1883e+06 9.61 0 0 0
1.41726e+06 4.1883e+06 9.59 0 0 0
1.41726e+06 4.1883e+06 9.38 0 0 0
1.41726e+06 4.18829e+06 9.16 0 0 0
1.41726e+06 4.18829e+06 8.25 0 0 0
1.41726e+06 4.18829e+06 7.72 0 0 0
1.41726e+06 4.18829e+06 7.69 0 0 0
1.41726e+06 4.18828e+06 7.83 0 0 0
1.41726e+06 4.18828e+06 7.81 0 0 0
1.41726e+06 4.18828e+06 7.88 0 0 0
1.41726e+06 4.18828e+06 8 0 0 0
1.41726e+06 4.18828e+06 13.82 0 0 0
1.41726e+06 4.18829e+06 9 0 0 0
1.41726e+06 4.18829e+06 9.17 0 0 0
1.41726e+06 4.18829e+06 9.29 0 0 0
1.41726e+06 4.18829e+06 10.33 0 0 0
1.41726e+06 4.18829e+06 7.99 0 0 0
1.41726e+06 4.18829e+06 9.46 0 0 0
1.41726e+06 4.18829e+06 11.56 0 0 0
1.41726e+06 4.18829e+06 16.88 0 0 0
1.41726e+06 4.18829e+06 9.86 0 0 0
1.41726e+06 4.18829e+06 16.92 0 0 0
1.41726e+06 4.18829e+06 12.08 0 0 0
1.41726e+06 4.1883e+06 17.08 0 0 0
1.41726e+06 4.1883e+06 12.83 0 0 0
1.41726e+06 4.1883e+06 13.49 0 0 0
1.41726e+06 4.1883e+06 13.85 0 0 0
1.41726e+06 4.1883e+06 16.69 0 0 0
1.41726e+06 4.1883e+06 16.76 0 0 0
1.41726e+06 4.1883e+06 16.75 0 0 0
1.41726e+06 4.1883e+06 16.74 0 0 0
1.41726e+06 4.1883e+06 16.91 0 0 0
1.41726e+06 4.18831e+06 16.87 0 0 0
1.41726e+06 4.1883e+06 21.02 0 0 0
1.41726e+06 4.1883e+06 21.27 0 0 0
1.41726e+06 4.1883e+06 21.7 0 0 0
1.41726e+06 4.1883e+06 16.78 0 0 0
1.41726e+06 4.1883e+06 21.18 0 0 0
1.41726e+06 4.1883e+06 18.37 0 0 0
1.41726e+06 4.1883e+06 17.44 0 0 0
1.41726e+06 4.1883e+06 17.08 0 0 0
1.41726e+06 4.1883e+06 17.43 0 0 0
1.41726e+06 4.18829e+06 17.23 0 0 0
1.41726e+06 4.18829e+06 17.51 0 0 0
1.41726e+06 4.18829e+06 17.38 0 0 0
1.41726e+06 4.18829e+06 17.31 0 0 0
1.41726e+06 4.18829e+06 17.19 0 0 0
1.41726e+06 4.18829e+06 16.98 0 0 0
1.41726e+06 4.18829e+06 11.98 0 0 0
1.41726e+06 4.18829e+06 16.78 0 0 0
1.41726e+06 4.18829e+06 12.09 0 0 0
1.41726e+06 4.18829e+06 11.92 0 0 0
1.41726e+06 4.18828e+06 10.58 0 0 0
1.41726e+06 4.18828e+06 9.81 0 0 0
1.41726e+06 4.18828e+06 10.21 0 0 0
1.41726e+06 4.18828e+06 9.59 0 0 0
1.41726e+06 4.18828e+06 9.07 0 0 0
1.41726e+06 4.18828e+06 8.57 0 0 0
1.41726e+06 4.18828e+06 9.93 0 0 0
1.41726e+06 4.18827e+06 8.2 0 0 0
1.41726e+06 4.18828e+06 11.48 0 0 0
1.41726e+06 4.18828e+06 11.63 0 0 0
1.41726e+06 4.18828e+06 12.64 0 0 0
1.41726e+06 4.18828e+06 12.41 0 0 0
1.41726e+06 4.18828e+06 16.69 0 0 0
1.41726e+06 4.18828e+06 12.64 0 0 0
1.41726e+06 4.18828e+06 13.84 0 0 0
1.41726e+06 4.18828e+06 13.59 0 0 0
1.41726e+06 4.18828e+06 14.83 0 0 0
1.41726e+06 4.18828e+06 17.51 0 0 0
1.41726e+06 4.18829e+06 17.1 0 0 0
1.41726e+06 4.18829e+06 16.82 0 0 0
1.41726e+06 4.18829e+06 17.03 0 0 0
1.41726e+06 4.18829e+06 20.91 0 0 0
1.41726e+06 4.18829e+06 16.73 0 0 0
1.41726e+06 4.18829e+06 21.22 0 0 0
1.41726e+06 4.18829e+06 17.02 0 0 0
1.41726e+06 4.18829e+06 21.19 0 0 0
1.41726e+06 4.18829e+06 17.32 0 0 0
1.41726e+06 4.18829e+06 21.09 0 0 0
1.41726e+06 4.18829e+06 16.8 0 0 0
1.41726e+06 4.18829e+06 20.87 0 0 0
1.41726e+06 4.1883e+06 20.74 0 0 0
1.41726e+06 4.1883e+06 21.61 0 0 0
1.41726e+06 4.1883e+06 17.79 0 0 0
1.41726e+06 4.1883e+06 21.63 0 0 0
1.41726e+06 4.1883e+06 21.58 0 0 0
1.41726e+06 4.1883e+06 24.78 0 0 0
1.41726e+06 4.1883e+06 21.33 0 0 0
1.41726e+06 4.1883e+06 24.74 0 0 0
1.41726e+06 4.1883e+06 21.32 0 0 0
1.41726e+06 4.1883e+06 24.7 0 0 0
1.41726e+06 4.1883e+06 24.75 0 0 0
1.41726e+06 4.1883e+06 25.02 0 0 0
1.41726e+06 4.18831e+06 21.12 0 0 0
1.41726e+06 4.1883e+06 28.46 0 0 0
1.41726e+06 4.1883e+06 28.37 0 0 0
1.41726e+06 4.1883e+06 24.98 0 0 0
1.41726e+06 4.1883e+06 24.69 0 0 0
1.41726e+06 4.1883e+06 24.8 0 0 0
1.41726e+06 4.1883e+06 23.46 0 0 0
1.41726e+06 4.18829e+06 24.69 0 0 0
1.41726e+06 4.1883e+06 21.25 0 0 0
1.41726e+06 4.18829e+06 24.75 0 0 0
1.41726e+06 4.18829e+06 21.11 0 0 0
1.41726e+06 4.18829e+06 24.74 0 0 0
1.41726e+06 4.18829e+06 21.15 0 0 0
1.41726e+06 4.18829e+06 24.58 0 0 0
1.41726e+06 4.18829e+06 21.01 0 0 0
1.41726e+06 4.18829e+06 21.02 0 0 0
1.41726e+06 4.18829e+06 21.11 0 0 0
1.41726e+06 4.18829e+06 21.01 0 0 0
1.41726e+06 4.18829e+06 17.04 0 0 0
1.41726e+06 4.18829e+06 18.73 0 0 0
1.41726e+06 4.18828e+06 18.11 0 0 0
1.41726e+06 4.18828e+06 17.37 0 0 0
1.41726e+06 4.18828e+06 17.04 0 0 0
1.41726e+06 4.18828e+06 16.91 0 0 0
1.41726e+06 4.18828e+06 16.78 0 0 0
1.41726e+06 4.18828e+06 16.81 0 0 0
1.41726e+06 4.18828e+06 16.85 0 0 0
1.41726e+06 4.18828e+06 16.88 0 0 0
1.41726e+06 4.18828e+06 12.93 0 0 0
